# .PCD v0.7 - Point Cloud Data file format
VERSION 0.7
FIELDS x y z
SIZE 4 4 4
TYPE F F F
COUNT 1 1 1
WIDTH 1177
HEIGHT 1
VIEWPOINT 0 0 0 1 0 0 0
POINTS 1177
DATA ascii
-0.05236119032 0.1161951721 0.1434707791
0.01954810321 0.1336595118 0.0701655969
0.02532493696 0.2201479524 0.1874506176
0.05904722959 0.05389396846 0.09553530812
0.03973619267 0.1772537231 0.133268863
-0.008197488263 0.1480356902 0.2918431759
-0.04264868796 0.0238210801 0.1138216034
0.05953882635 0.1138954088 0.08972214162
0.5310762525 0.3644187152 0.5165657401
0.03366992995 0.1732673794 0.1253743619
0.005795110948 0.009897112846 0.08262772858
-0.05956998467 0.08063194156 0.09181909263
0.04038149118 0.01019053627 0.08353981376
0.1029642299 0.07240173221 0.03124501184
0.01229534857 0.2484764606 0.2331308126
0.04185073823 0.01469992567 0.08786973357
0.1244784966 0.1739726216 0.2094136924
0.05871348828 0.2172413468 0.1735622883
-0.04602010548 0.0926784873 0.05585129559
0.03587938473 0.05081155896 0.1618252695
0.06006621197 0.02713920362 0.1015537679
0.06000289693 0.03269674629 0.1079877913
-0.01465303358 0.1063229144 0.03634435683
-0.03945011646 0.1398161203 0.215320766
-0.03680899367 0.3898386657 0.3374822438
-0.04622078314 0.1280675828 0.1295303851
0.05514785647 0.03404308856 0.07775609195
-0.03182416782 0.2053968608 0.1567843705
-0.000152483175 0.1526159197 0.09580396116
0.08048586547 0.1909588128 0.1784265786
-0.008467890322 0.1381937116 0.07835477591
0.0301586166 0.2295163572 0.2011600733
0.07263433933 0.136229232 0.261495173
-0.0519631654 0.08668940514 0.06192253903
0.02515537851 0.238236323 0.2131350785
-0.0363195315 0.1286789924 0.09377861023
0.00564771425 0.1436632127 0.0817605257
-0.05386574194 0.08274773508 0.06188575551
-0.01833888143 0.1236275509 0.06365194917
0.08574809879 0.02269191295 0.05212642625
0.2318929136 0.1903678179 0.1822559685
-0.06130670756 0.06803069264 0.0876410529
0.03937735781 0.0996600464 0.04390932247
-0.02968495898 0.1204039976 0.06989778578
0.1328204572 0.3646711111 0.4459285736
-0.01512368117 0.21483621 0.2182282805
0.01065988652 0.1008396149 0.246679768
-0.03754599765 0.1239950508 0.08765386045
0.05584637076 0.1943838894 0.1663438678
0.06260912865 0.2009359896 0.196338281
-0.02473944798 0.06380234659 0.09272833169
-0.04652089626 0.1281395257 0.1314649284
0.1810770482 0.1554433405 0.1221402436
0.06406574696 0.1104345769 0.02416110225
-0.006452783942 0.002190579195 0.1083700061
0.07092109323 0.1593735069 0.1518107504
0.1654630899 0.4137310684 0.5528171659
0.0255117733 0.228727296 0.1997976601
-0.008124881424 0.151396662 0.0978731215
0.008228383027 0.3028894365 0.3269732296
-0.06280907989 0.03602781147 0.07362829149
0.02964077517 0.004912870936 0.09165398777
0.05454759672 0.1921503842 0.2060219496
0.02725904994 0.1459984928 0.1922493577
0.005510521121 0.1230347455 0.05365179852
-0.001766645932 0.04597549886 0.1622964442
-0.01230078936 0.1893004775 0.1678951234
-0.03808554634 0.1098234877 0.19988738
-0.03860576078 0.1675494313 0.2086009085
0.305575639 0.1625848562 0.2378905565
0.07168287039 0.1037783474 0.1275517344
0.05813726038 0.188412562 0.1612623632
0.07915436476 0.1961440593 0.1733643711
-0.05381691456 0.1066984683 0.1137340292
-0.04362778366 0.1505455375 0.1977802813
0.07140934467 0.039141085 0.1132293791
-0.02356815338 0.1303498298 0.08001747727
0.1287688166 0.05992361903 0.1092027873
0.1599707305 0.1606209278 0.1201027632
0.06522513926 0.07781289518 0.1015337557
-0.04806520045 0.05424535275 0.1357911676
0.04202650487 0.2143260986 0.1837673932
0.05406405404 0.1248465702 0.1762047857
0.01568714902 0.2115551531 0.1325034052
-0.00778888911 0.07003645599 0.1894149184
0.05596980453 0.1440011561 0.1123286784
0.05448650941 0.162877053 0.07981716096
-0.01581594162 0.2485406548 0.2957551777
0.08160214126 0.4593938291 0.6119860411
0.02416979894 0.2339778095 0.2072454989
-0.04525693506 0.136045754 0.147562176
0.02377649024 0.2299586535 0.1587029845
0.07376082242 0.2770248652 0.2903879285
0.008529106155 0.06387861073 0.1885996461
-0.02627239935 0.3358663619 0.3390806615
0.08509305865 0.2530517578 0.2802703679
0.06714708358 0.09402407706 0.1017662659
-0.01241339371 0.172551319 0.1371770501
0.08030508459 0.198797375 0.2219543457
-0.01170025021 0.1202230528 0.05440925807
0.06161424518 0.1999349296 0.1383767426
0.03427160531 0.2188068181 0.1482959092
0.07835561037 0.1368289292 0.1763945818
-0.05353934318 0.09200118482 0.07555860281
-0.02186012827 0.1765559465 0.1619823128
-0.05044722557 0.08797325939 0.05961449817
-0.01699071378 0.0935575515 0.2118110359
0.02337449044 0.1015276536 0.03200866282
-0.008502686396 0.1462513506 0.09030938148
0.04807561636 -0.003461450804 0.06807354093
-0.0219922699 0.3728801608 0.3428735435
-0.052455578 0.09199317545 0.07167546451
0.01797273383 0.1783879697 0.0921401903
-0.01389174815 0.1602347195 0.2971305847
-0.05500807241 0.3991469741 0.3361969292
0.07418727875 0.06653053313 0.1428391635
0.02273570187 0.1310905665 0.1819011122
0.03296711296 0.1430995017 0.3137406409
0.1035614088 0.4524582624 0.5461360812
-0.01805617474 0.1527189463 0.09219335765
0.06274048984 0.1837172508 0.1130082831
0.1282215267 0.4374141693 0.5510516763
0.09387344867 0.1997009069 0.3371311426
-0.01025930233 0.03792928532 0.1496166885
-0.05312713981 0.1083615124 0.1135739461
-0.006274853833 0.05248268694 0.169111073
0.1624926329 0.1489978284 0.1072516367
-0.04566855356 0.1026121825 0.0698164627
-0.00700128777 0.276648134 0.3328672647
0.1037550494 0.1635604054 0.1020286754
-0.03004503064 0.04488537088 0.1459286511
-0.007156062871 0.1619777679 0.08624010533
0.08617470413 0.1711878926 0.2669898868
0.0527312085 0.5093442202 0.6207212806
-0.02604207397 0.1629439741 0.1902169138
0.03612035513 0.2582666278 0.2406447828
0.1095697433 0.1338607073 0.06674490869
0.0645108968 0.07224838436 0.1156319231
0.1465862989 0.4430354238 0.5969564319
-0.02733643353 0.1495758146 0.1114570946
0.007598461118 0.08353515714 0.1425691247
-0.01116079278 0.2133301049 0.2063677609
-0.04718139768 0.1344992518 0.155460164
0.09269465506 0.2056220025 0.274030596
0.1099445596 0.1481922716 0.08401876688
0.07741723955 0.1669149399 0.177837953
-0.03636775911 0.1791901737 0.196444571
0.0001972729806 0.1518787444 0.3041673303
0.04401782155 0.5235905051 0.6120468378
-0.03215995803 0.12083444 0.07385466993
0.1220640168 0.4200986624 0.5064124465
0.08112309128 0.1813695878 0.1197827607
-0.03890218213 0.114346616 0.2015135735
0.120447278 0.1891689599 0.1620078385
-0.03392478451 0.06172315776 0.1600270569
0.08518656343 0.1880357265 0.2370353043
-0.04007457942 0.159716934 0.1878518909
-0.01426829956 0.1034557074 0.03192643076
0.05636076257 0.2145517617 0.1599282324
0.07792434096 0.4767592549 0.6063434482
-0.0210838709 0.06686526537 0.1019313633
0.03108563647 0.2645336688 0.2488994747
0.007210583426 0.1833952516 0.09949307889
0.02947626635 0.1383913457 0.3073908091
-0.01900831237 0.1007552743 0.03105702624
0.1411432922 0.1327803284 0.2206048518
-0.02620056644 0.1869327128 0.1938404292
0.05118153989 0.0858689025 0.04572025314
-0.01391558815 0.04835417494 0.09598828852
0.05976354703 0.04600108042 0.04966487736
-0.06097340211 0.06797933578 0.09763285518
0.184993431 0.4760995507 0.7194625139
-0.02107597888 0.1007741988 0.03293702751
0.05607556552 0.2686653733 0.2639715075
0.3408342302 0.2407000661 0.2914150059
-0.0768167302 0.4397393167 0.3916074038
-0.05767935514 0.08854325116 0.09190043062
0.0605013296 0.06187258661 0.05582605302
0.007030007429 0.2630020976 0.3986649811
-0.03401601687 0.1433720589 0.1181847006
0.0842154026 0.02041821182 0.04411181435
0.1505899727 0.1583846509 0.2333607525
0.0001780450257 0.3123098612 0.2523673475
0.0627271533 0.06607064605 0.08970862627
0.1457183808 0.4101459384 0.5198144913
0.003169645788 0.2345350981 0.219333142
-0.02610729448 0.2144337147 0.2719857991
-0.04462106153 0.05580510199 0.1420217305
-0.05625144392 0.08201771975 0.06966102868
0.0981952697 0.2298609465 0.3929496408
-0.02833449095 0.1605307162 0.1420235634
0.09586489946 0.1017226055 0.1788965166
0.01636396721 0.3138179779 0.3303101361
0.1769849509 0.4239779413 0.5872403979
0.05572573096 0.07418280095 0.171886906
-0.03025262244 0.1563475579 0.2534863651
0.05764534324 0.1138837934 0.08584082127
-0.04452039301 0.1359400749 0.1996009499
-0.01248925552 0.1290850043 0.0675906539
0.1218792349 0.162286073 0.108363539
-0.0146260988 0.1448346823 0.07740867138
0.2534878552 0.1785380989 0.2778556347
0.05212067813 0.1626805365 0.1955674887
0.03891610727 0.2297289371 0.2039968222
-0.01649271138 0.04620075598 0.1564322114
0.03613895923 0.1356809139 0.08211801201
0.04405925423 0.1661812514 0.08092999458
0.009850539267 0.09792231768 0.2419881225
0.1820301414 0.1686951816 0.138330996
-0.03608393669 0.09963789582 0.04781514779
-0.0418991521 0.135859549 0.1276649982
0.04359850287 0.101948984 0.05162398145
0.07409734279 0.1804000735 0.1877619326
0.03042320907 0.07505846024 0.1414778531
0.02602147125 0.08661749959 0.2280423641
-0.004464650527 -0.008935660124 0.09362190962
0.05950852856 0.3988967538 0.5954090953
0.1438827813 0.4521248937 0.6370749474
0.0971339345 0.2353140414 0.2965867519
-0.02039118297 0.1058471501 0.03971572593
-0.01673778147 0.2471305281 0.3175560832
0.002043687738 -0.01687992178 0.08185445517
0.07064176351 0.1055311635 0.1947289705
0.008046222851 0.2843486071 0.2219838798
0.07073274255 0.09430547059 0.1293132901
0.01618255302 -0.005302816629 0.08969934285
-0.007328884676 0.2689537704 0.3496401906
0.08589705825 0.177780807 0.1161634475
-0.02137267776 0.2305957228 0.2816808522
0.08254078031 0.03368282691 0.0987508893
0.1930079907 0.21332407 0.2583919764
-0.04506646097 0.09441274405 0.05628560483
-0.05332988873 0.01651592739 0.08785236627
-0.003782297485 0.1363303065 0.0521661602
0.0611901246 0.1443582773 0.3033731878
0.02582753822 0.1949514747 0.112325877
-0.05395706743 0.07240174711 0.1382317841
-0.01804562099 0.1323237419 0.07600006461
0.08738607168 0.1768740714 0.2606292665
-0.04180851579 0.3742356002 0.3092820048
0.0197293181 0.5298157334 0.6753590107
-0.04692660645 0.3714608252 0.3035699427
0.01573205367 0.01068480592 0.1122836247
0.2065880895 0.1560818553 0.1345600486
0.010047324 0.1808049083 0.0959598124
0.01007745974 0.04578113183 0.1640764177
0.05629429966 0.0386570394 0.07993502915
0.1528507024 0.09500272572 0.1994990259
0.07177648693 0.2734198272 0.2835767865
-0.0390194729 0.1405607164 0.1281831861
0.05418388546 0.06833728403 0.1643170416
0.04183355719 0.1277563572 0.178368181
-0.009889042005 0.1870107353 0.1597238481
0.369181782 0.2980386317 0.3539338708
-0.04999817908 0.1005964577 0.07797704637
0.0642554611 0.1162046194 0.1024698615
0.08272965252 0.1606665999 0.2067614645
-0.03042984754 0.07635499537 0.08641450852
0.1887343824 0.1685234308 0.2550404966
0.07420574129 0.1137578189 0.1497861594
-0.03386927769 0.05027734116 0.1482936442
0.05514523759 0.2095635384 0.1873049736
0.07362048328 0.1135303453 0.0309952423
-0.0545042567 0.4071403742 0.3860450089
0.2913624942 0.1433665603 0.2292203754
0.00179295172 0.2729690075 0.2821791172
-0.03558731824 0.1392454505 0.2251727134
-0.05366826057 0.09066650271 0.07378768921
0.07781018317 0.1297319531 0.1801128089
0.1145439744 0.4003547132 0.4653745592
0.03987174481 0.09625037014 0.04037791491
0.1084357724 0.4248650968 0.6359884143
-0.057951428 0.09000515938 0.1277601421
0.1041027009 0.08260223269 0.03213715553
0.02383213118 0.08025349677 0.2178218961
0.05353400111 0.2283694446 0.2110982239
-0.01049859263 0.2599501908 0.3413185477
-0.008531176485 0.1407071054 0.08199894428
0.01566553116 0.1083260924 0.03635673225
-0.01635589637 0.03633908927 0.08432387561
0.003616906703 0.1323622763 0.06621834636
0.09834472835 0.062445838 0.02601751685
-0.004071070347 0.02036422305 0.08435671031
0.0572972782 0.05399201065 0.1118077189
0.08028709143 0.02581420355 0.08429762721
0.06354138255 0.115912132 0.02897148207
0.05541750044 0.2853864431 0.2843096554
0.02153177559 0.03374833986 0.1070008352
-0.001518574543 0.07048241794 0.1937488467
-0.002635595854 0.1610714197 0.1095795855
-0.03061672486 0.1735487133 0.1967030615
-0.04875797033 0.1338635832 0.1771579236
0.03433775157 0.06730034202 0.1902290136
-0.00807411503 0.2547343373 0.2734398246
0.2424810827 0.1872476339 0.1818554252
0.03905325755 0.2790090442 0.2692542672
0.1972280741 0.09483534843 0.1973128766
0.04588654637 0.1824396551 0.1432250142
0.03959952295 0.1859527677 0.1439247429
0.02872403897 0.3030070066 0.3021725118
0.04195694253 0.1503628641 0.1037428528
-0.03625127673 0.1419368088 0.2252240479
0.007522685453 0.1828617752 0.1373928636
0.07785678655 0.1833366305 0.3479824066
0.04631034285 0.2617645264 0.2492627949
-0.03892481327 0.3086130321 0.2359200567
0.02410554513 0.01782851294 0.09477163851
0.01412551664 0.004289024975 0.1043640077
-0.05909204856 0.08598041534 0.09970413893
0.1838296056 0.110758245 0.2201593518
-0.0169386398 0.1527113914 0.1876549423
-0.05052495003 0.1137373075 0.1738269925
0.0123908259 0.1026578769 0.2502119839
0.01748324744 0.2022905946 0.1617046893
0.162834242 0.167260319 0.2414498329
0.02943625674 0.274761498 0.2558635175
-0.04354780167 0.1081191152 0.07356999815
-0.002408421366 0.1379997283 0.07561091334
-0.04092168808 0.07606349885 0.1659639925
0.1363689601 0.1808896363 0.1438808441
0.05604655668 0.1625505388 0.3371337056
-0.002388150431 0.1296402812 0.06380003691
0.02167640254 0.1998598874 0.1575421393
-0.02232086472 0.1088303253 0.04575518519
-0.047552526 0.01985101774 0.1017849147
0.111856617 0.120145902 0.05456791446
-0.01049905736 -0.007588350214 0.09622340649
0.09289652854 0.3687731624 0.4052393734
-0.02606628463 0.1654999554 0.1479481161
-0.06377782673 0.03194935992 0.06565439701
0.07813058048 0.143152386 0.1862016022
0.04017741978 0.12711218 0.03344822675
0.05565530807 0.05675338954 0.1339488924
-0.02894606069 0.1215794086 0.09476357698
0.04792594165 0.07244043797 0.1838199347
0.06132369116 0.1521441638 0.3160082102
-0.0564542152 0.06379524618 0.1255719513
0.08179716021 0.1456294954 0.2247892469
0.06367826462 0.3391015828 0.5514264703
0.1260718405 0.166197896 0.2139157355
0.06002638489 0.1123742312 0.0243360959
0.002304101596 0.1210827976 0.2685559392
0.05844273418 0.03658332676 0.04549900442
0.1078043878 0.07429419458 0.03826379403
0.06483390927 0.07608876377 0.1017188206
0.07199087739 0.1007764935 0.1499329805
0.098199673 0.2421654314 0.4165970981
0.1160892546 0.1686436087 0.2040805668
0.04252985865 0.01419637725 0.08562709391
-0.008299867623 0.1538719684 0.101762183
-0.005721376278 0.2605758309 0.2780390084
0.05052030832 0.2833147347 0.2790021896
0.08717369288 0.4614920914 0.5372112989
-0.006463501602 0.1710982621 0.1281250864
-0.06812786311 0.4058762193 0.3992899954
-0.04269938916 0.1362859458 0.2053468674
-0.04029138386 0.04210161418 0.134358108
0.06023991853 0.0901029408 0.07231510431
0.03554604948 0.1621642411 0.1127384454
-0.02567526512 0.102598466 0.03969502077
0.08245414495 0.1904472411 0.2216693163
-0.05116757005 0.07998975366 0.1502153873
0.109847866 0.1025074497 0.1870576739
-0.04673218727 0.1415317953 0.1855003685
0.006404801272 0.2116191089 0.2430924326
0.06756024063 0.2439449728 0.2436164171
0.02967192233 0.04668385908 0.1597170234
-0.04800819978 0.1042736843 0.1761364192
0.5020643473 0.3445622027 0.4705713391
0.07129176706 0.1261113882 0.129440546
0.05994258076 0.216714114 0.176034838
0.02234463207 0.2764439881 0.2698477507
-0.06043063477 0.03398003429 0.08372625709
0.06572836637 0.2716009021 0.2754660547
0.1321970075 0.1922856867 0.1728443652
0.07217361033 0.2123561352 0.3994998932
0.01443219557 0.1564311981 0.200465709
-0.04946949333 0.1261641979 0.1478421092
0.2287708968 0.1091637015 0.2107453793
0.03282029554 0.200590983 0.1601059586
0.07912822813 0.1329082847 0.1939498484
0.07885189354 0.2054783702 0.2238386869
0.001556814183 0.1205605865 0.05015256628
-0.03000156209 0.02697787061 0.1279945672
-0.04261589795 0.1501480043 0.205501318
0.09215609729 0.1228295118 0.0475808382
0.05942574143 0.5035469532 0.5926881433
-0.009206793271 0.1974328309 0.1771179438
-0.03431851417 0.1746205389 0.193822518
-0.03412177041 0.3913416862 0.3442957997
-0.006222888362 0.1250949353 0.03962989524
0.2986736596 0.1683050692 0.2578706145
0.03974209353 0.04071994498 0.137904048
0.00567694474 0.04983060434 0.1694998741
-0.05798984319 0.08404337615 0.1296634227
-0.05547980964 0.03192451596 0.09773081541
0.1347386688 0.08040482551 0.0819459185
0.06087853014 0.05998968333 0.09954006225
0.1499088109 0.1782283634 0.1427839398
0.04927803949 0.1699041575 0.348667264
-0.03260341287 0.1742625833 0.2536151111
0.05863138661 0.1826285422 0.3655712306
0.04622229561 0.1092871875 0.255979687
0.09645970911 0.1390707642 0.1939199865
-0.04299655184 0.1322189271 0.2034968883
-0.000377469114 0.000980028417 0.1057960093
0.08877461404 0.1365096718 0.1895410717
0.05937334895 0.2141937017 0.1957186759
-0.03659262881 0.1284555197 0.2160981596
-0.03307959437 0.1700193137 0.1808883101
0.1145977825 0.05416286737 0.07934559882
0.001548497123 0.1961621791 0.1620785594
-0.05044512451 0.122050643 0.1437392533
-0.0003586750536 0.2684221268 0.2782216966
-0.03251739964 0.01097721979 0.1097331718
0.000719812233 0.07673211396 0.133341223
0.06230135262 0.0758497864 0.07361301035
-0.02705872245 0.1510804743 0.2605422139
-0.000380733778 0.2258059531 0.3614322543
0.01843457296 0.0754468739 0.2094813883
-0.01233089156 0.1154505312 0.04796527699
0.07397429645 0.1915388256 0.1934952289
0.1068829373 0.3396422863 0.3861428499
-0.004421576392 0.256949544 0.2677582204
-0.02929991484 0.06200722978 0.08088974655
-0.03241191059 0.1428685188 0.130097717
0.06974028051 0.1167142391 0.2306998372
0.08445125818 0.04783545062 0.1224489808
0.05856079236 0.03797321022 0.05961737037
-0.04931657016 0.0722700879 0.1479068249
0.3418486714 0.2958525121 0.3673706055
0.03637285531 0.1042184159 0.04615388438
-0.05259189382 0.1156753451 0.1557300687
0.03809412569 0.1026168913 0.04607280344
-0.0263143871 0.09164804965 0.1992746592
0.01736675762 0.1293152869 0.2905276716
-0.0285998825 0.338861227 0.2692263722
0.03160076961 0.03369531035 0.1356345266
-0.05152733624 0.06192551553 0.1358615309
0.08332131803 0.4801307917 0.5827462077
0.08646740764 0.05447399989 0.007994277403
-0.06268279999 0.05599122494 0.0676708743
-0.03339114413 0.2159122378 0.2396978289
0.06126851588 0.1041160375 0.08561745286
-0.06327285618 0.05001358688 0.06754568219
0.02970637381 0.05159132928 0.167655915
-0.009255473502 0.2377414107 0.1658563465
0.08134806901 0.1878012121 0.1319074482
-0.002030666918 0.0264168866 0.09027591348
-0.004607713316 0.2816501856 0.3479723036
0.0415145494 0.1230621487 0.1753221452
0.05980111659 0.06603419781 0.05362020805
0.01567566767 0.1627959311 0.1074055806
0.02530093119 0.2244575173 0.193876937
0.07431916893 0.1134404391 0.1810636371
0.03863846511 0.002250897698 0.07413248718
-0.02914376929 0.1256513298 0.2302954346
-0.03448425233 0.1443295032 0.1216373071
-0.05741028488 0.07612534612 0.1296643466
0.01355566643 0.1556454003 0.09764827043
0.06993360817 0.1881027818 0.1244607791
0.02737612464 0.135498181 0.0762014389
-0.03156222403 0.1618958265 0.2527503073
-0.05146017671 0.09387034178 0.1596309394
0.0508870855 0.06051233038 0.1568733752
0.08215969801 0.2819154561 0.4896677732
0.07140823454 0.1097928062 0.1236147061
0.3133149743 0.1924844533 0.28319332
0.1617018133 0.4427128136 0.6147541404
0.05801320076 0.1040239558 0.07778088003
0.05405243114 0.1480117291 0.06050623581
0.0324469991 0.2094504088 0.1339374334
0.05984437093 0.05804267153 0.1036313176
0.002538770903 0.212549001 0.1861511469
0.0896531269 0.1476558596 0.1907483637
-0.06239109859 0.05799319595 0.07365877926
-0.01647916995 0.01488163322 0.1217093617
0.01251464803 0.3007326722 0.2898877263
0.008638871834 0.2630813718 0.1958138645
-0.04189480096 0.07891628146 0.1671383083
0.09158474952 0.4561064839 0.5353689194
0.009464649484 0.2982573509 0.4178644419
0.03086207435 0.2499747872 0.2529441416
0.08098213375 0.1417532116 0.2008381337
-0.006357221864 0.1034359485 0.0279681962
-0.0004120350932 0.1229069084 0.05377719179
0.06455545127 0.4450894296 0.4893068969
0.0776778385 0.1972676665 0.3715458214
0.0832087025 0.1548834145 0.217040956
0.04190756753 0.1460642666 0.09880065918
0.05809877068 0.1964790225 0.3832642138
-0.01648112573 0.1666964293 0.1313883066
0.01150734723 0.0299108699 0.1415345371
0.07376180589 0.2036531568 0.208814159
0.04559639469 0.1515402794 0.1081748605
0.03222224489 0.02448840439 0.1020279676
0.02539389394 0.2164963931 0.1817267239
0.05964750424 0.05609896779 0.09772720933
0.05919563025 -0.006662454922 0.04944308475
0.08391317725 0.4195723534 0.4636596143
0.02101519518 0.2741640806 0.2213948071
0.01969943382 0.06804320216 0.1966627687
0.1936236471 0.1491070688 0.1231468022
0.120413892 0.08092701435 0.1730115265
-0.005889309105 0.211414814 0.3431447446
0.02979420125 0.06687994301 0.1921056807
-0.06172333658 0.3969205618 0.3895241022
0.04977422953 0.1970169991 0.1252192557
0.03014022857 0.1582080275 0.3305239081
0.05053131282 0.1773463041 0.09794925153
0.01689319499 0.2593407929 0.2692660987
-0.06061733887 0.0539036952 0.09764491022
0.1663339436 0.1342557818 0.09864258766
0.005355956033 0.2470642328 0.2366577089
-0.004397292621 0.1108650863 0.03778182715
0.04766888916 0.1488415003 0.1074109897
-0.02117001824 0.1129413545 0.1439841688
0.07374717295 0.1104990542 0.1475324333
0.1185035333 0.06581872702 0.06781110913
0.1583108008 0.1538284123 0.1108216345
0.06819913536 0.07905609906 0.1515652388
0.02084297128 0.2269825339 0.1976117194
0.02452563494 0.1250851303 0.06194864213
-0.03671979159 0.1582910419 0.1660660803
-0.02048386075 0.1657068282 0.2913330793
0.02980936505 0.01967546158 0.1139538735
0.01994584687 0.2024653852 0.1614950299
0.2809171975 0.2139892131 0.2289894819
0.152193442 0.1649697125 0.1236380115
0.05929152668 0.0804258734 0.1754682958
0.124888882 0.0985481143 0.1914948076
0.0420540832 0.1720611155 0.08819379658
-0.02873861417 0.05986440927 0.08080369979
0.05061585084 0.01623279229 0.06610539556
0.2739152014 0.1840134263 0.2829736471
0.2371522486 0.1661783159 0.2663699985
-0.006031708326 0.130617559 0.2730073929
-0.06147309393 0.06418803334 0.07362699509
-0.01924770139 0.1880382597 0.3053203225
0.08269456774 0.3583215177 0.3848565221
0.009973159991 0.1618569493 0.07489063591
0.06599489599 0.1619837731 0.08260757476
0.06630501151 0.1122782677 0.1056206524
-0.03108850494 0.1939021498 0.2431594133
-0.041474998 0.1543377042 0.2079298794
-0.01199744269 0.1969483346 0.1262418032
-0.007934909314 0.1284156293 0.1716496646
-0.09862832725 0.4914099872 0.45487082
0.05376020074 0.09064339846 0.2118403316
-0.02807845548 0.3683281839 0.3098098636
-0.06054487079 0.07590626925 0.1076507196
0.09584641457 0.142070815 0.07027852535
-0.04931541905 0.0480177477 0.1277787983
-0.05690545961 0.07796253264 0.06561162323
-0.06061934307 0.0740064308 0.1057778075
-0.009661952034 0.2661422491 0.3367456496
0.05300917104 0.1517184079 0.3224521875
0.03991944343 0.1690298319 0.1235736609
0.01562159415 0.2012363523 0.1609973311
-0.009956926107 0.0283931233 0.1380705833
0.08418917656 0.02447048575 0.0721059218
0.1724507809 0.2019604295 0.1914043128
-0.003712078324 0.1902846247 0.1578551233
0.007976847701 0.1044724658 0.250692457
0.07640779763 0.2103063315 0.393079102
-0.025420269 0.1762290001 0.1698691845
0.07393204421 0.153691709 0.07473170757
-0.0494838208 0.1101973802 0.09555936605
-0.01133974083 0.1942284256 0.122922115
0.2905438244 0.1934446245 0.2107106
-0.02982685342 0.08647440374 0.09605507553
-0.04261483997 0.03376884013 0.123872526
0.03534101695 0.1996138394 0.1597576737
0.1200129986 0.05840535462 0.08458863944
0.06802892685 0.3057581186 0.3159532249
-0.04550454766 0.1321479529 0.137818709
-0.03500404209 0.1367437392 0.107002981
0.02001523972 0.1290162206 0.03365972266
-0.05836798251 0.02194841392 0.07960453629
0.03625073656 0.03355877846 0.1296200454
-0.006032766774 0.182466954 0.1473956555
0.1029087678 0.06227553636 0.03545241058
-0.05180663243 0.09632723033 0.1602211446
-0.05838475749 0.08603473008 0.09180641174
-0.05199620873 0.1059671044 0.09768940508
0.3026186824 0.1827359051 0.2048377097
0.1733602285 0.1407188326 0.1063958555
0.01524726581 0.1218531877 0.2791014314
0.06012691185 0.09914389998 0.1629495323
-0.01059075259 0.01388926245 0.07488531619
0.06304428726 0.09195201844 0.08364944905
0.1194583848 0.4173411429 0.4974597096
-0.04972298443 0.1185786575 0.1220759153
0.08210208267 0.2900670767 0.5012256503
-0.02883590385 0.1884805858 0.2070358396
0.3613613844 0.2314287275 0.3232727945
0.2241247743 0.1825006008 0.2737290263
0.01161056105 0.1275055707 0.06010100991
-0.03952150792 0.1441684067 0.1394585073
0.3293836117 0.2767629623 0.3860169351
-0.02294000611 0.2272056937 0.2931497395
0.07538078725 0.1381287873 0.1535127312
-0.05389171466 0.08387705684 0.06378521025
-0.05296223238 0.1138237566 0.1456594914
0.06346615404 0.293333292 0.2993473113
0.0669496879 0.1216919497 0.1133907288
0.08793284744 0.1765340567 0.1834940314
0.05168497562 0.2219810635 0.1706444621
0.04805596918 0.04924412444 0.1397388577
0.1615500748 0.1519358903 0.1099929884
-0.0227071736 0.2199670523 0.3050744236
0.05009485036 0.1828841865 0.1470741928
-0.001966715092 0.1344666332 0.07052370161
-0.04958271235 0.1202996299 0.1796614528
0.09212379903 0.03289593756 0.08020557463
-0.005358298775 0.1927664578 0.163945809
-0.05733554065 0.0703304261 0.1276531518
0.009993570857 0.21814619 0.1891558468
0.04147633165 0.095837228 0.04167384654
0.1003664806 0.4541313648 0.6007463336
0.07748565078 0.4814074934 0.568995595
0.06734015048 0.08965791017 0.1055434197
-0.04123327136 0.156090349 0.1833383888
-0.03218617663 0.1016135886 0.04580386728
-0.008353795856 0.01600811258 0.1245107427
0.00127235509 0.08990842104 0.2248383462
-0.01990234293 0.1085325554 0.1419502944
0.05297531933 0.1470195502 0.1112088487
-0.01797676086 0.1018603146 0.2215184867
-0.01454874873 0.1911739707 0.1755848527
0.06945807487 0.1019536406 0.1134996042
-0.01190368272 0.2097213119 0.2021169513
-0.03150707111 0.1660889089 0.1659582555
-0.007346050348 0.2302761227 0.1576820761
0.193198666 0.1932868809 0.2617424428
0.06549836695 0.1422455311 0.1259543598
0.1981577277 0.1619023979 0.136000514
0.06409025937 0.1648057699 0.08576243371
-0.05291214213 0.08598513156 0.06368520111
0.08224586397 0.1480023563 0.2220270634
0.1790095568 0.1865193546 0.2522132695
0.0282933265 0.1686385274 0.2084820122
-0.0401105918 0.1338562965 0.1158445925
0.05531416088 0.04598353431 0.1036786214
0.1462977529 0.4510680735 0.6613176465
0.1495834887 0.1421040595 0.09421017766
-0.05908577144 0.07198913395 0.06761873513
0.0567846112 0.0300894063 0.05958056822
0.07275597751 0.07311569154 0.1486833394
0.002302020323 0.2409748435 0.2305681258
-0.05825115368 0.06612815708 0.1217430532
0.02936153673 0.1175924093 0.05602170154
0.04594414309 0.0843937993 0.2109397203
0.06481366605 0.4724383652 0.5300325155
0.03395461291 0.001084381016 0.07950846106
0.02141175047 0.1135238335 0.04590811208
-0.04540259391 0.1464277953 0.1876604259
0.05915247276 0.04599317536 0.07560389489
-0.02568459511 0.1322342157 0.08349519968
0.04780134559 0.174301818 0.2036907226
-0.019723434 0.06896663457 0.1800944954
0.09218146652 0.1430032253 0.06973960251
0.06959434599 0.1378332376 0.131537199
0.07972688973 0.1425632536 0.186419487
0.1400570571 0.1541434228 0.1042147502
0.0925635621 0.4649031758 0.5846303701
-0.04814377055 0.1261998862 0.137404114
-0.01822038367 0.09193424881 0.2085444182
0.03436659649 0.4473779202 0.6224068403
0.07737983018 0.1716213524 0.1813822091
0.1622446775 0.07802909613 0.1721662432
-0.04775927961 0.1199371144 0.1137135774
-0.02463025972 0.08639275283 0.1124721244
0.0309484005 0.4087410271 0.5912436247
-0.05913549662 0.08194776624 0.08972592652
0.0623325482 0.1207804605 0.1751783788
-0.06366215646 0.03983074054 0.06763960421
0.05876393989 0.2212674618 0.4148714244
0.06736549735 0.1514954269 0.3058142662
0.07187566161 0.1281413734 0.1326013803
-0.04212828726 0.1056004614 0.1894778907
0.07829082757 0.01629114524 0.06208793446
-0.02014802583 0.1950814724 0.1935749203
0.2859147489 0.1388083994 0.2275479585
-6.133640272e-05 0.03037693352 0.1424715519
-0.0001134670238 0.2493604422 0.2473198175
-0.03506420553 0.1645333171 0.2397401929
0.2748293877 0.2028718442 0.3024435341
0.003012647852 0.07536458969 0.2032829374
0.06282423437 0.1593259424 0.1364641488
0.0417342186 0.1316897273 0.038942229
-0.006325595081 0.1701611429 0.126346454
-0.0481537953 0.1319501251 0.1857915521
-0.01629026607 0.1487344205 0.09974727035
0.07678098977 0.1093881428 0.1742221415
0.05566065013 0.1043909416 0.2352686077
0.07421793789 0.02201996744 0.08429953456
0.008169144392 0.0924353078 0.1502035111
0.004715607502 0.2958642244 0.3223950863
-0.01228517387 0.1836026162 0.1576299369
0.06134154648 0.09620381147 0.20874919
0.05668594688 0.03961957246 0.02852676995
-0.01214066334 0.1349134445 0.07582597435
-0.0442737639 0.1107711196 0.07976012677
0.08379837126 0.4551361203 0.6090099812
0.06142966449 0.1556974947 0.07251072675
0.03431934863 0.09542312473 0.1572488546
0.06861720979 0.08592350036 0.127358824
-0.02639823407 0.1265457571 0.08806055784
-0.0007965799887 0.1314503253 0.04313023761
-0.03726283088 0.07727316767 0.1719512641
-0.02761632949 0.1488883495 0.1127282232
-0.01572596096 0.2287277281 0.2569355667
0.004302440211 0.06671658158 0.1913465112
0.01154661272 0.2004654557 0.234413445
-0.06241137907 0.0579713434 0.06964043528
0.06713926047 0.2298852205 0.424567908
0.03575425223 0.2030313313 0.1263240278
-0.05880254507 0.08982599527 0.1154782996
-0.01206131 0.06061811 0.1758729666
-0.06125836819 0.06423811615 0.06957677007
0.03883609548 0.2417168468 0.220168218
-0.04158037156 0.1240650564 0.09827919304
0.01405665185 0.124956578 0.0297243651
0.04881414399 0.1352440268 0.09400688112
-0.02078414336 0.1025897563 0.03531168774
0.04302300885 0.08334048092 0.149245277
0.0759203583 0.2260469347 0.4156941175
-0.005942225922 0.122588411 0.0360270068
0.1267850548 0.4449850619 0.6422025561
-0.03589211777 0.3922344446 0.3618446887
-0.0164119117 -0.00236819312 0.1018733382
0.1667692214 0.2036201805 0.1965380311
0.0331293121 0.2510835528 0.2311400175
0.07501269132 0.1883201152 0.1917496473
-0.05885523185 0.07805468142 0.1237237602
-0.01599486545 0.2039112151 0.2000990808
0.08137605339 0.1413479 0.2091284692
-0.01179880649 0.1720083058 0.135496676
0.01089515537 0.2963373363 0.4252510965
-0.0388751477 0.1655912846 0.2147103101
-0.05225793272 0.01998576149 0.09364137053
-0.0325207077 0.07367561758 0.1737230569
0.03194817901 0.2273836434 0.1598326266
0.06717869639 0.1959002167 0.1837256402
-0.03496249765 0.1719802916 0.1940226555
0.04090029746 0.1981709898 0.220651716
-0.059682969 0.03427247703 0.08634822071
0.07619838417 0.1311591566 0.04946259782
0.02163034678 0.08663699031 0.2287123501
0.02961931936 0.07499692589 0.206945166
-0.05332247168 0.01842054166 0.08979302645
0.07094339281 0.1140439808 0.2209160328
0.05611033738 0.07809664309 0.04963589832
0.1182200611 0.1318877786 0.06846828759
0.030976234 0.374614507 0.4108270407
0.04621186852 0.1064569578 0.0601247251
-0.005972236395 0.1977604479 0.2324634194
-0.03652018309 0.08041371405 0.1758609712
0.08108980209 0.4713237882 0.5517013073
-0.03088100627 0.1297777444 0.1260410398
0.09593567997 0.1328570694 0.05972447991
0.09507464617 0.2093312144 0.2865652144
-0.03529551625 0.04740905762 0.1441968381
-0.02972070873 0.1122561246 0.1140613183
0.1755693853 0.1444083899 0.240900442
0.0001972474856 0.2429606169 0.2369843423
-0.06345920265 0.04010255635 0.0699339956
-0.01397596207 0.2363619804 0.16634655
0.06600949168 0.20676139 0.1559735984
0.01597809047 0.1689442843 0.1156838164
0.06296848506 0.06798418611 0.1057991087
0.05891735479 0.03994466364 0.04565794766
-0.0216379948 0.3705656826 0.345672667
-0.01215544157 0.2130433321 0.2080793679
0.118595615 0.3751114011 0.6421148777
0.09587287903 0.2031091452 0.3058146238
-0.0245770961 0.1505781263 0.1038391814
0.0607085824 0.01751370728 0.08871730417
0.1210630164 0.1411832422 0.08009979874
-0.007063612808 0.0673872903 0.1193893403
0.0364857167 0.04995264113 0.1597553194
-0.01233826019 0.1389228702 0.06576923281
-0.01458921842 0.0007518017665 0.1059508175
0.07675408572 0.1301315278 0.1667921841
-0.01723011024 0.01878825948 0.07153123617
0.0741231963 0.08567881584 0.00899169594
0.03347662836 0.4702817202 0.6389672756
-0.005898748524 0.281219393 0.2940893173
-0.02017240971 0.1971982569 0.1976865828
0.2867630124 0.2639159858 0.292385757
0.0005889690947 0.2097864598 0.1324828267
0.01744097658 0.04584718496 0.1635401845
-0.02949760109 0.1141388491 0.06050302088
0.009490594268 0.1993369758 0.1613622606
0.06333217025 0.486038506 0.6207104325
0.05204898864 0.03664877638 0.09773799777
0.0654688105 0.09191983193 0.09378490597
0.06991693377 0.2401902378 0.24221614
0.1182539389 0.162674427 0.1075468436
-0.04205318168 0.1405711323 0.1421530694
-0.004334971309 0.165866375 0.1179480925
-0.01427936647 0.05414258316 0.1670444012
0.01863343269 0.03526958451 0.1071549803
-0.03359090537 0.3894688189 0.3574101627
0.05031524599 0.01452888455 0.06411042809
-0.151614666 0.7087894678 0.7146754861
-0.05233466253 0.1098515987 0.1635518372
0.02421650849 0.246329844 0.2246037573
0.224385798 0.222160995 0.2860847712
-0.01190443058 0.2186845243 0.2179978192
-0.009125297889 0.230530411 0.158653453
-0.03478703275 0.1646510214 0.1742866784
-0.05348921567 0.1060695499 0.1077880114
-0.03084125184 0.1024924293 0.04543286189
0.01757552288 0.267344445 0.4256530404
0.09122911096 0.04119595513 0.02487758175
0.01428263634 0.2522672415 0.2670957446
-0.006325506605 0.2683899403 0.2954449058
0.04992558062 0.04370704293 0.1213519424
0.05621936917 0.0761910677 0.1745555997
0.2552810907 0.124232851 0.2199804187
0.08583419025 0.1925869286 0.3488800228
-0.005919263698 0.3289290071 0.2700023055
-0.02584682405 0.3455575109 0.3442838788
0.1134883612 0.4427440166 0.5397350788
-0.0336951986 0.1021543816 0.04841154441
0.07332053781 0.1379627138 0.1438630819
-0.00948842708 0.2776038051 0.2060602009
0.01349479239 0.03186992556 0.1438810378
0.053085614 0.4864318371 0.6292187572
0.06514651328 0.1896619499 0.1726694852
-0.01238828432 0.1307842284 0.170984
0.02352410182 0.1517699063 0.09432165325
-0.06120459735 0.06399989873 0.09947882593
-0.01415728219 0.2122344077 0.2113238275
-0.005728563759 0.198076576 0.1224483624
0.03050082549 0.2330241203 0.413815707
0.05825401098 0.06822817028 0.1535840333
0.06215566024 0.03666365892 0.1121172905
-0.05586670712 0.09662847221 0.09760145098
0.08968573064 0.09597484022 0.02474909462
0.1783389747 0.4616651237 0.6783806682
0.06681728363 0.1892538071 0.1747308969
0.06888730824 0.1060042158 0.1115127057
0.04846770689 0.2322074026 0.1954753101
0.05706431717 0.4731764793 0.5244583488
0.02011119761 0.1299281418 0.03469140455
-0.05700512975 0.0938725993 0.09947559237
-0.05522429943 0.01945403405 0.08621615916
0.04965332523 0.13718988 0.3035969138
0.06162087247 0.1746520549 0.3524295092
0.1638323516 0.4331613481 0.5908462405
0.005629209336 0.1204926521 0.05018442124
-0.02708123811 0.0806715712 0.1016116291
-0.04678507522 0.09401018173 0.05956261978
0.06080888584 0.05604625493 0.0556907244
-0.03530748561 0.116805777 0.2100032568
0.116282545 0.0605972521 0.07013475895
-0.04773853719 0.1339071989 0.1574931294
0.01224031951 0.2017646283 0.3651570678
0.04442045093 0.09594014287 0.04575739056
-0.01461142767 0.1803511977 0.1556470245
-0.02976412885 0.1820769608 0.136848703
-0.03919221088 0.1636793017 0.2174229026
0.06975845993 0.1235820204 0.0389967002
0.03885601088 0.5049737692 0.5612953305
-0.02255781367 0.02495154738 0.1298754662
0.0875685364 0.2477628738 0.2797262073
-0.02419901267 0.08036269993 0.1078829393
-0.05251298845 0.06405607611 0.1356595159
0.04170975089 0.03806328773 0.1295804679
0.1417803019 0.1049162596 0.07669263333
0.05536623672 0.1098845452 0.07768260688
-0.002369903727 0.1984803379 0.3410997987
0.04807958752 0.02858403139 0.09597056359
0.05758939683 0.05402517691 0.1096454263
0.08147923648 0.1679741591 0.1971637607
0.212444663 0.1832296401 0.1671982855
0.1873832494 0.451279223 0.6572284698
0.03781107068 0.07910680026 0.2094471902
0.3250726163 0.2211332917 0.2656904161
0.05030220002 0.1644427627 0.12668778
0.009508656338 0.1662757397 0.3257492185
0.01607923023 0.1447135508 0.3085646629
0.1039919779 0.1201184988 0.05062566325
-0.05164890364 0.08824282885 0.06343841553
0.01753487997 0.1661912799 0.1120149195
-0.08964408934 0.4724318981 0.4420891702
0.02049787715 0.09316057712 0.2384452373
-0.0374927111 0.1081447601 0.06234144419
0.03573362529 0.1523837 0.1011055484
-0.005301415455 0.1735781282 0.0959944129
0.1165540293 0.09474889189 0.0475175418
-0.0559835881 0.09418942034 0.0917333886
0.08144381642 0.1419801414 0.2142184675
-0.002303831978 0.1702005863 0.1234183162
0.0908274278 0.245842576 0.2849597037
-0.005196959712 0.140003562 0.183120966
-0.04040104896 0.05205114558 0.1436731964
0.142634809 0.4463080466 0.6075896621
-0.02317050099 0.1164095998 0.1436549127
-0.02708279528 0.04390591383 0.07285787165
-0.03039504588 0.1197930127 0.2215281874
0.02535837889 0.3223017752 0.334300518
0.0155334333 0.01217501983 0.1144478917
-0.0430778861 0.1125907749 0.08026238531
-0.04393184185 0.016385708 0.1041937023
0.03196858987 -0.002940993756 0.0756143406
0.05442577228 0.1001173705 0.2292843759
-0.03624266759 0.02418218739 0.1203576848
0.001687156502 0.2338963002 0.2603908181
-0.04780477285 0.1362548769 0.1669101417
0.1502874494 0.1958212852 0.1806190014
-0.06020803005 0.02398366481 0.07564301044
-0.001148119452 0.2102334201 0.3508407772
-0.02699163929 0.3826477826 0.3456237912
0.08989152312 0.1018759608 0.1760337204
-0.02774298936 0.002837803215 0.103895992
0.0306964796 0.4216418266 0.6025701165
-0.05715075508 0.08024396002 0.07153816521
0.07015379518 0.1099694595 0.1177759618
-0.0009081066237 0.1679809541 0.0871007517
0.1358720362 0.1767076254 0.1361461878
-0.01970151253 0.2511275709 0.1831105947
0.08808682859 0.08245946467 0.0162457414
-0.05319958925 0.06065243483 0.1317318678
0.07281441242 0.1759818047 0.1717135012
0.1123113185 0.3896190822 0.6429030895
-0.01324870996 0.1011615247 0.143456459
-0.02015179954 0.2971327603 0.2246634364
0.1320579499 0.19353652 0.18423599
0.1278104186 0.432870537 0.6584784389
-0.01387616992 0.06870827079 0.1838487089
0.03417111933 0.1344022751 0.07925836742
0.1218506694 0.07265898585 0.06625750661
0.04745830223 0.09195686132 0.0456780754
-0.04072606191 0.007500848733 0.09810343385
0.01358716562 -0.01225352567 0.08172367513
0.04040907323 0.4651930034 0.6330615878
-0.03522548825 0.1417000592 0.1178537235
0.03727513179 0.1117296815 0.05590648577
0.01741418801 0.3292904794 0.3626202643
-0.02116337791 0.08879095316 0.1216504872
0.05532934144 0.08918935061 0.2059141845
0.05026186258 0.1830176115 0.1057340354
-0.05550690368 0.04215856269 0.1081961915
0.1278525144 0.1504148692 0.09438087046
0.07347578555 0.1740561426 0.171397388
0.01395017095 0.2233046293 0.3868510127
-0.03603957593 0.1442551613 0.2271407843
-0.03785769269 0.154996708 0.1624143124
0.2318848521 0.2050754726 0.2003028095
0.1321397871 0.1502869725 0.09603289515
0.02581889369 0.3055995107 0.3075733781
0.01933431625 0.2279218137 0.1989519745
0.02467877977 0.2580288649 0.2407030016
0.2733967304 0.1911341101 0.1996068358
0.3198567033 0.212619096 0.2548239827
-0.03293027356 0.08910184354 0.1889998019
0.06752631068 0.0859112367 0.1557982862
0.1119808033 0.05133615062 0.1157617941
-0.01640535891 0.1941300035 0.1835335791
-0.05764364451 0.09456218779 0.1117094606
0.03661958501 0.2034595311 0.1657524556
-0.05831031501 0.05573024973 0.1116241738
-0.1107088849 0.5358666778 0.5052748322
-0.03155307472 0.1538363099 0.2470077723
-0.05149514973 0.03790507093 0.1136751175
0.07365468889 0.1097843722 0.1499877572
-0.02781162411 0.2673183978 0.2875257432
-0.06267459691 0.04200639576 0.07762034982
-0.02950578369 0.1206032261 0.1003489569
-0.05954158679 0.07817862183 0.1183295697
0.1497121751 0.08695608377 0.1894500405
-0.04536945373 0.03538662195 0.1222772002
-0.0005238695303 0.2023829222 0.1736214757
0.05610523373 0.1890192181 0.1173316315
-0.01555690169 0.1875338852 0.1704480201
0.2644271553 0.1432622522 0.2405637205
-0.05064955354 0.09399729967 0.1619183421
0.1358218789 0.1724600196 0.2208775133
-0.00838954933 0.1086853892 0.03638516739
0.07614949346 0.1683359742 0.09590268135
-0.0332874991 0.129942596 0.2241311222
0.1451878548 0.1906144023 0.2179558277
0.03786878288 0.02262338996 0.1079221666
0.03017718717 -0.009904843755 0.06838218123
0.04037849978 0.2486486137 0.22595869
-0.0202309452 0.1442147344 0.08808987588
0.01447984111 0.2740229368 0.2667747736
-0.01389511488 0.1633535177 0.1222290993
0.01473129727 0.08727212995 0.2283116579
0.08638864011 0.4741648734 0.5739012361
0.05873043835 0.06589519233 0.1467459351
-0.01750950702 0.1639684886 0.1277388185
0.02004520781 0.1019839942 0.0304509867
-0.04371281713 0.1442715526 0.1619956046
-0.05555796623 0.08809577674 0.0774781853
-0.03622526303 0.391336292 0.341327101
0.06154811382 0.02723586187 0.1012259349
0.4957818389 0.3884856105 0.5382050276
0.03086677566 0.1354122013 0.0780358687
-0.06048335135 0.0720520243 0.08162394911
0.1874327511 0.1255292743 0.2330041081
0.0775308162 0.1817098707 0.1912954152
0.1071023643 0.09947929531 0.1834736615
0.06645675004 0.08224859834 0.1056088358
-0.1464414299 0.7165862322 0.7100582123
-0.03595541045 0.1287696511 0.217704609
0.02031020634 0.2118064463 0.1754861325
-0.03929091245 0.132162571 0.2120651901
0.06030162051 0.06784807891 0.05769670382
0.005978823639 0.310015291 0.3787925541
0.04383464903 0.2322162986 0.180671975
0.009547196329 0.3169553876 0.2956821024
-0.01247420907 0.3513322771 0.3302329183
-0.0173627343 0.2351941466 0.3234154582
0.0791041404 0.1902409643 0.1810305417
0.1038770378 0.4280422926 0.4955090284
-0.02996531501 0.3348945975 0.2639005482
0.005890973844 0.1953948438 0.3501256704
0.03416245058 0.2507324219 0.202194199
-0.03550247476 0.1626383513 0.2373207659
0.04387827963 0.1771171689 0.2079137713
-0.03827970847 0.3706958294 0.3629757166
-0.01354945544 0.02262835763 0.07777898759
0.01158327796 0.1764614582 0.1264977455
0.06126550958 0.05606266856 0.07757942379
-0.03062954359 0.03349857777 0.1341529191
0.07869708538 0.1345355809 0.1816173643
-0.04900438339 0.03740469366 0.1181565672
-0.04219844192 0.1307295561 0.1158809364
0.1554553211 0.1830963343 0.2343101352
-0.0174642466 0.2278612107 0.253063798
0.02970196307 0.1816767156 0.1342433095
0.06264638156 -0.004156792071 0.04841015115
0.1092453077 0.07488716394 0.04071573541
-0.0452125892 0.07714769244 0.159883216
0.2192855775 0.1265524775 0.2325341552
-0.004940439016 0.3480244279 0.3024691343
-0.01809026673 0.3272532523 0.3283181787
-0.05569109321 0.1005417407 0.108024627
-0.03021637723 0.1222849712 0.1238367558
0.04479589686 0.5127617717 0.5847997665
0.05826305598 0.1657600105 0.08506712317
0.04172356427 0.1280650198 0.07850000262
0.04240782559 0.1374385655 0.1844098419
-0.06192798167 0.0599899739 0.08367102593
-0.04390108958 0.1441416591 0.2018917948
0.02004853263 0.2127239108 0.1346333921
0.007352000568 0.2999195158 0.4055629969
0.1154916435 0.05202953517 0.09616221488
-0.02312326245 0.05530336499 0.1621897668
0.06200940534 0.08855603635 0.1866035163
0.07960990816 0.402864486 0.6091970205
0.04955666885 0.02990256436 0.09366543591
0.06948754936 0.4899342358 0.6081568003
0.07033456117 0.1280896068 0.127653718
0.2376681119 0.2528119087 0.2806707323
-0.02955212444 0.1178775132 0.221591413
0.01382891089 0.1880100965 0.1423010379
-0.02671736293 0.1901574135 0.201984033
0.05420347303 0.1280103028 0.2837513685
-0.01607375965 0.1306121647 0.07211148739
0.2287003845 0.1910749823 0.1822042316
0.04233824462 0.09035340697 0.2257929742
0.07631642371 0.1171528473 0.0354671143
-0.0108446274 0.1367777288 0.2753733099
0.2244206518 0.2027915269 0.1953499615
-0.04483067989 0.1141339019 0.08755496889
0.05480642989 0.09930755198 0.1617220193
0.03813082725 0.1068447158 0.2569463849
0.003710723016 0.2916059494 0.3908520043
0.04526999965 0.2383746803 0.2184018791
-0.02641368471 0.2086371034 0.2503096163
-0.02255785465 0.05049597844 0.1573927104
0.05415899679 0.04413038492 0.1057615653
0.05965384841 0.04996675625 0.04565981403
0.08665917814 0.0746948868 0.01152605005
-0.05692186207 0.0979296267 0.1255431175
-0.04486052692 0.05378651619 0.1399454325
0.1263503581 0.09641487896 0.05981472135
0.0599168241 0.2640311718 0.2607211173
-0.004308347125 0.2255038172 0.2144831121
0.04513864592 0.1356773227 0.09025309235
-0.01126518846 0.2756232321 0.2042468041
0.1305439174 0.4265940487 0.5282979608
0.06255379319 0.1012471169 0.01535576954
-0.005540401675 0.28566733 0.2967116833
0.02713585459 -0.00543133961 0.07933579385
0.01572671905 0.00887750648 0.1097454652
0.07613632083 0.1858485043 0.1244649142
0.004268443678 0.1817741394 0.09878586233
0.02242151089 0.2114607692 0.1745119244
-0.06088196486 0.06601519138 0.06953659654
0.00134153082 0.2583273947 0.3813899755
-0.03132919595 0.1328552216 0.1309490651
0.03203332797 0.2910084128 0.2838475108
0.01598583907 0.2157273144 0.1821571141
-0.04533080384 0.1364687234 0.1493279487
0.03754414991 0.2600485682 0.2436496466
-0.02799219452 0.08460439742 0.1019976884
-0.001734883757 0.2756231427 0.3715347946
0.003727429779 0.235540852 0.3777176738
0.1733727455 0.1424269527 0.1074608564
0.002148577012 0.1490406841 0.1928263754
0.007955390029 0.2345869094 0.1607059538
0.01045263559 -0.01950952783 0.07448366284
-0.02580730245 0.05879588053 0.1639420092
0.02031412721 0.3702805638 0.5495166183
-0.03017896041 0.07117852569 0.1737916023
-0.007757628802 0.2365027219 0.1641108692
0.09579302371 0.05250824243 0.02604196966
0.05816847831 0.04796820879 0.03765131906
-0.05817457661 0.02997591347 0.0875883922
-0.02074133419 0.1336755455 0.1649712026
-0.01869389415 0.02387039736 0.07287424803
0.1859583259 0.1753673106 0.1487328857
-0.0327829048 0.1226457655 0.077358298
0.01265563723 0.2384678423 0.3970685303
-0.0118594924 0.05035609752 0.1000703201
0.06639176607 0.08080420643 0.1455740631
-0.06321504712 0.0499779284 0.06963021308
0.04211073369 0.09047332406 0.03624543548
-0.04798126221 0.09780364484 0.1717015505
0.1341263205 0.1930957586 0.1762877852
-0.01516413037 0.2494218647 0.3255807161
-0.0583753027 0.09185151756 0.1173620299
-0.0200836882 0.1908835322 0.1855977029
0.009579902515 0.05009750277 0.1700272709
-0.03843182325 0.07063706219 0.1638327539
0.1506721228 0.4494557083 0.6755684614
0.1002043337 0.04522098601 0.1084740758
0.0918905139 0.1518213302 0.08062806726
0.07412129641 0.143997252 0.1855380386
-0.05248653889 0.1121298969 0.1614658535
0.08792240173 0.1177739501 0.04091010243
0.01946827583 0.2829256356 0.2759042978
0.04217319936 0.1485571414 0.3212226629
0.0565250963 0.08989305049 0.06182893738
0.00358542148 0.104421787 0.02826811001
0.0202827733 0.1108136326 0.04180731624
0.03149346262 0.227579698 0.1989369094
0.1249648631 0.1613412946 0.1080854833
0.08161758631 0.1959486753 0.1562655568
0.007654390298 0.2220459282 0.1964426935
-0.06338250637 0.04812211171 0.06976558268
0.04033673182 0.1801104993 0.2114206105
0.008798552677 0.3130045533 0.4001093209
-0.06139553338 0.05991902947 0.09586346149
0.05692419782 0.1344881058 0.1039767191
-0.02352211252 0.1382573545 0.09021563828
0.1710455269 0.1354297996 0.2350876182
0.001961081522 0.165222168 0.113457419
-0.06342414021 0.03240917251 0.06796307862
0.04209700599 0.2442758381 0.2244492769
0.09195391834 0.04104742408 0.1061408073
-0.01748079434 0.05104777217 0.1617061049
0.09412075579 0.1222957596 0.1885924786
-0.02137512341 0.1738545001 0.1556535065
0.05212672427 0.1482442021 0.06012311578
-0.09208818525 0.4771439135 0.4459687471
-0.03958408535 0.1321854889 0.1097016782
-0.007040900644 0.1930944026 0.2281680703
0.07343762368 0.1340510249 0.141687572
0.0506478399 0.1430018097 0.3115626574
0.07738725096 0.1116749868 0.03086327575
-0.02492674068 0.1742992997 0.163892895
-0.05770105869 0.08060580492 0.07573435456
0.2357478291 0.2463162094 0.2582249343
-0.002167406725 0.1922179461 0.159574151
-0.04312371463 0.1360789537 0.1356817931
0.06001934409 0.07063288242 0.1529214978
0.08916208893 0.2489546686 0.2841938436
0.01202998403 0.04234933108 0.1102835312
0.001126194722 0.2967306972 0.341698885
