-0.0010209809 0.0417199711 0.2560596642
-0.0996282664 0.1145076148 0.7503558242
0.0053939570 0.0312893551 0.1512807848
-0.0440787383 -0.5961770799 0.6234421752
0.0170774551 0.0265047283 0.0803666181
-0.0802973423 0.0974735860 0.4432822126
-0.0263895307 -0.3616057311 0.4048896296
0.0153930521 -0.0633055852 0.1518586544
-0.1332322505 0.1039553248 0.7572127065
-0.0897387094 0.0449692118 0.5408328575
-0.0568636580 -0.0539461458 0.2394582127
-0.0808702676 -0.0598615032 0.1538355700
-0.0642946967 -0.3432758492 0.3760738324
-0.0849260524 0.0359614778 0.2489718970
-0.0947113784 0.1017926556 0.5285995581
-0.0183574242 0.0425389771 0.3254602209
-0.0560475623 -0.4900338828 0.5223096174
-0.0659999116 -0.1417034240 0.1660853042
-0.0975074663 0.0816248760 0.7940827287
-0.0096266807 -0.2297170869 0.2640035499
-0.0222624786 0.0936510428 0.2815255982
-0.0210163938 -0.3411773287 0.3833993434
-0.0137827180 -0.0454086645 0.2358417667
-0.0492564163 -0.1992051778 0.3128896919
-0.0796714565 0.0406699429 0.4451676593
-0.1484265679 0.1147585042 0.9421908697
-0.0731129274 0.1054474021 0.3625592525
-0.0706534514 0.0358967850 0.1529731079
-0.1183688311 0.1016171454 0.8812536692
-0.0478250002 -0.5462154402 0.5657069812
-0.0430854672 -0.6280035912 0.6730709657
-0.0062603259 -0.1600801995 0.2386758222
-0.1405378203 0.1247510952 0.8723897657
-0.1290013130 0.0832630188 0.6753770890
-0.0586720339 -0.2663163714 0.3405026306
-0.0578304828 -0.0150641778 0.3300732808
-0.1195415951 0.0787943336 0.8216822066
0.0315066191 -0.0507662918 0.0809347334
-0.0468647194 -0.3776452767 0.4215393435
-0.1023515454 0.1166010772 0.6578291146
-0.0716743881 -0.2396770189 0.2732875895
-0.0616849555 -0.1646221840 0.2514897374
0.0056242449 -0.1419982880 0.1684277315
-0.0694132349 0.0346488954 0.3614424081
-0.0633851660 0.0352847987 0.0888749211
-0.0485660858 -0.4288200197 0.4629929889
-0.1226673212 0.1257314835 0.9184785957
-0.0467934193 -0.6507228108 0.7113411643
-0.0201093511 -0.2698213410 0.3377281591
-0.1315375309 0.0808728621 0.7429976247
-0.0778915347 -0.0578573024 0.0912087276
-0.1294994784 0.0985472309 0.6678188859
-0.0925163137 0.0624107279 0.6381102657
-0.0703687103 0.0978653520 0.2963405850
-0.1280692941 0.0848050494 0.8603242315
-0.0262569679 -0.2047257333 0.3040469416
