-0.040478 -0.080788 0.229204
-0.092635 0.042428 0.282892
0.011066 -0.124998 0.146503
-0.052875 -0.052622 0.233172
-0.093940 0.026302 0.341611
-0.023235 0.025464 0.347008
-0.062161 -0.237896 0.342066
-0.077982 -0.017385 0.246397
-0.030898 0.065845 0.365073
-0.003253 -0.178164 0.180718
-0.089887 0.059779 0.238356
0.027136 -0.070633 0.090070
0.000822 0.033134 0.284111
-0.085426 -0.029333 0.156470
-0.094947 0.097665 0.500595
0.000723 0.050062 0.276378
0.020266 -0.044702 0.142388
-0.125352 0.119876 0.770819
-0.083879 -0.046993 0.105454
-0.073098 -0.093215 0.106973
-0.013075 -0.228583 0.292821
-0.096342 0.086850 0.280734
-0.025426 -0.331079 0.382828
-0.057724 0.073640 0.221388
-0.058783 -0.481896 0.512730
0.014287 -0.008613 0.175229
-0.134970 0.087073 0.765693
-0.117375 0.117920 0.703629
-0.043318 -0.647714 0.704002
0.010457 0.033924 0.148380
-0.071274 -0.336504 0.353520
-0.100288 0.051594 0.560324
-0.079516 -0.098169 0.145166
0.003952 -0.056326 0.181976
0.000617 -0.041899 0.194765
-0.116463 0.111447 0.898906
-0.021888 -0.360467 0.398522
-0.075592 -0.226255 0.283665
0.008980 -0.099861 0.184055
0.002533 -0.169410 0.215038
-0.030854 -0.363339 0.410926
-0.015910 -0.257063 0.319055
-0.099117 0.078086 0.416433
-0.003962 -0.181454 0.249583
-0.099178 0.100057 0.299721
-0.088437 0.120992 0.634572
-0.073224 -0.267107 0.291476
-0.043633 0.002036 0.366581
-0.003034 -0.062258 0.195149
-0.003333 -0.194534 0.199715
-0.007230 -0.216808 0.224276
-0.011624 -0.108119 0.227196
-0.047522 -0.381572 0.429720
-0.074661 -0.012387 0.299569
-0.061047 0.025639 0.492506
-0.080658 0.117475 0.369300
-0.068855 -0.311966 0.373657
-0.085282 -0.033226 0.111637
-0.060855 -0.014296 0.346065
-0.085457 -0.024357 0.108739
0.015457 0.008574 0.173603
-0.099386 0.081113 0.444931
-0.021281 -0.361265 0.398246
-0.000124 -0.162274 0.230669
0.029556 -0.062857 0.087086
-0.046753 0.020152 0.422239
-0.075066 -0.197895 0.253888
-0.056409 -0.436454 0.465738
0.004167 -0.147180 0.157744
-0.068954 -0.250875 0.343962
-0.104474 0.088937 0.511718
-0.057870 -0.092535 0.231076
-0.040839 0.114787 0.327684
-0.005131 -0.217855 0.246506
0.015754 0.008821 0.170829
-0.054260 -0.111007 0.242122
-0.103699 0.053862 0.549260
0.009581 0.037469 0.096647
-0.024557 0.051740 0.080336
-0.028961 0.053072 0.367412
-0.093326 0.046063 0.291858
-0.093406 0.118700 0.354904
-0.052442 0.054953 0.148319
-0.083983 -0.039567 0.168192
-0.067497 -0.212656 0.233344
-0.107227 0.116975 0.624751
-0.077461 -0.112108 0.150573
-0.093860 0.045070 0.307895
-0.074293 -0.018713 0.267595
0.011062 0.034346 0.110052
-0.008800 -0.058552 0.203535
-0.078119 -0.120438 0.179285
-0.132493 0.114037 0.910222
-0.090454 0.116212 0.741502
-0.067671 -0.024738 0.275557
-0.066471 -0.259793 0.265097
0.016168 0.019302 0.150711
0.008680 0.021912 0.245563
-0.085435 -0.029340 0.109687
-0.085446 -0.034821 0.147083
0.013541 -0.044505 0.160831
-0.077780 0.121809 0.364716
-0.078240 -0.056892 0.192871
-0.062700 -0.331268 0.394995
-0.079494 -0.105078 0.171808
-0.049124 -0.051026 0.236157
0.001514 -0.026968 0.209704
-0.086826 0.055466 0.214246
-0.016354 0.019478 0.327521
0.021008 0.010537 0.128233
-0.070066 -0.281119 0.290626
-0.095722 0.055907 0.317742
-0.051524 -0.548102 0.575938
-0.097120 0.094778 0.494445
0.003623 0.043544 0.151966
-0.086725 0.059564 0.221951
-0.069958 -0.018144 0.295583
-0.071259 -0.026726 0.257395
-0.035038 0.100309 0.332810
-0.084038 0.000800 0.254197
-0.124800 0.109424 0.694175
-0.105088 0.055874 0.550459
-0.059818 -0.422385 0.437975
-0.051685 -0.545356 0.573613
-0.029580 0.011747 0.349709
-0.076882 -0.007915 0.379999
-0.113259 0.115288 0.652591
-0.007732 -0.221813 0.230113
-0.005586 -0.214735 0.228977
-0.064556 -0.209130 0.225628
-0.010043 -0.120448 0.120465
-0.084279 0.004416 0.286525
-0.072587 0.049404 0.157722
0.000163 -0.091196 0.198932
-0.160092 0.120641 0.976477
-0.036577 0.033916 0.397430
-0.089068 0.024909 0.211098
0.001669 -0.157706 0.165753
-0.003644 -0.207175 0.227690
-0.078028 0.025439 0.082983
-0.088191 0.028776 0.183616
-0.063600 0.045006 0.572598
-0.011299 -0.051155 0.210363
-0.128790 0.086379 0.869470
-0.055459 -0.390119 0.430136
-0.044232 -0.611112 0.641984
-0.061156 -0.298628 0.381015
-0.109275 0.069910 0.530798
0.026844 -0.072975 0.098286
-0.066255 -0.206810 0.311311
-0.051233 -0.550575 0.580076
-0.047940 -0.585577 0.612018
-0.002330 0.064878 0.264527
-0.064836 -0.299989 0.378421
-0.033285 0.094004 0.337977
-0.071591 -0.219158 0.309573
0.017970 -0.042784 0.148519
-0.082374 -0.059416 0.166850
-0.061974 -0.482046 0.508744
-0.058929 -0.168659 0.177049
0.029761 -0.032182 0.109971
-0.108704 0.069278 0.526452
-0.093569 0.016774 0.376686
-0.087580 0.029224 0.169348
-0.083909 0.110647 0.717465
-0.049473 0.055361 0.147277
-0.090410 0.020462 0.313970
-0.063800 0.001202 0.411634
-0.075609 -0.213757 0.268023
-0.070033 -0.342789 0.375643
0.027538 -0.064485 0.068245
-0.132447 0.084152 0.774530
-0.122064 0.107118 0.640139
-0.069004 -0.137538 0.157625
-0.077818 -0.111182 0.193109
-0.098872 0.057779 0.395530
-0.075712 -0.066660 0.076673
0.005533 0.029084 0.265238
-0.097256 0.092964 0.364269
-0.063765 -0.382543 0.406308
-0.032041 -0.103550 0.103566
0.010912 0.038775 0.215600
0.010016 0.035995 0.159976
-0.097008 0.025753 0.427368
-0.086173 0.027776 0.152059
0.009874 0.042000 0.212853
0.007198 -0.073017 0.178070
-0.091975 0.027974 0.510944
-0.038735 -0.007424 0.338426
-0.069322 -0.335921 0.379469
-0.053310 0.055138 0.149888
-0.039015 -0.217808 0.325234
-0.086166 -0.003423 0.122672
-0.016858 0.080007 0.238240
-0.105382 0.074701 0.492757
-0.087726 0.018637 0.479531
-0.134469 0.112484 0.771354
-0.095995 0.027223 0.366073
0.002626 -0.173613 0.210082
-0.040424 0.080471 0.383865
-0.065872 -0.267737 0.358418
-0.023218 -0.126587 0.250046
-0.066041 -0.098293 0.226769
-0.083827 0.124403 0.360486
-0.096287 0.071365 0.308984
0.019614 -0.029942 0.144467
-0.131325 0.093447 0.702120
-0.066747 -0.173031 0.276648
-0.059929 -0.434963 0.452876
-0.156217 0.113046 0.966917
-0.045022 0.013102 0.399129
-0.011794 -0.244877 0.247959
-0.098059 0.063265 0.374065
0.008204 0.046534 0.214116
-0.014714 -0.316824 0.357062
-0.096501 0.076012 0.304282
-0.123142 0.111855 0.904464
-0.033293 -0.118426 0.249347
-0.024663 0.048647 0.355707
-0.000234 0.050287 0.167118
-0.084530 0.041479 0.172368
-0.039174 0.011475 0.372234
-0.039567 -0.340650 0.402203
-0.020898 0.056955 0.338923
-0.074644 -0.217033 0.290070
-0.007106 -0.150822 0.244300
-0.039509 -0.592367 0.610976
-0.009376 0.009854 0.302134
-0.032728 -0.289285 0.367913
-0.099004 0.124910 0.648132
-0.133241 0.098916 0.771331
-0.010555 -0.107086 0.225184
-0.059775 -0.421635 0.437155
0.006618 -0.008358 0.220787
0.018875 -0.100214 0.135606
-0.092897 0.017620 0.354315
-0.095617 0.037166 0.531879
-0.092083 0.022572 0.485945
-0.056358 0.088298 0.428601
0.005081 0.053275 0.231616
-0.066589 -0.282422 0.283486
0.009114 0.035546 0.141580
-0.073771 -0.200223 0.242743
-0.041808 -0.616049 0.649017
-0.010546 0.035004 0.317991
-0.038763 -0.301217 0.379445
0.017908 -0.034770 0.148923
-0.083036 -0.001932 0.343632
-0.097100 0.074437 0.336039
-0.069940 -0.094427 0.219358
-0.055342 0.087114 0.426604
-0.018777 -0.005793 0.304120
-0.095994 0.047026 0.335555
-0.086946 0.038698 0.550851
-0.096400 0.072486 0.313461
-0.079769 -0.078676 0.182013
-0.086581 0.002571 0.135935
-0.071679 -0.276166 0.349721
-0.082759 0.101072 0.488297
-0.007475 -0.101932 0.217381
-0.036558 0.054735 0.391976
0.014334 0.018439 0.190179
-0.076235 -0.125973 0.206399
-0.065155 -0.104783 0.104806
0.004737 -0.125628 0.203023
-0.102001 0.041708 0.464833
-0.050518 0.060098 0.165097
-0.068210 -0.187152 0.287368
-0.083208 -0.006414 0.237067
-0.030960 -0.427770 0.471839
0.004414 0.049821 0.192019
-0.012941 -0.088181 0.216208
0.009849 0.039611 0.231103
-0.104521 0.081366 0.495472
-0.070849 -0.338784 0.369992
-0.103860 0.123630 0.739120
-0.041661 0.047710 0.418994
0.014734 0.002675 0.179707
0.008126 -0.026953 0.185296
-0.010842 -0.051084 0.209616
-0.021334 -0.124060 0.247125
-0.100383 0.037868 0.507854
-0.046458 -0.045561 0.244040
-0.093736 0.045517 0.302508
-0.032594 0.061324 0.374011
-0.078890 0.102727 0.506021
-0.061291 0.043474 0.068555
0.020543 -0.089205 0.140752
-0.023840 -0.205770 0.301771
-0.074708 -0.159783 0.225797
-0.078704 0.107447 0.398950
0.019625 -0.087237 0.146529
-0.084585 0.008654 0.106832
-0.081791 -0.076295 0.146351
-0.069714 -0.140329 0.163612
-0.077864 -0.122902 0.182277
0.014029 -0.090851 0.167653
-0.032821 -0.601728 0.620112
-0.095237 0.025444 0.357312
-0.087626 0.052713 0.212853
-0.071447 -0.082105 0.085374
-0.093072 0.023350 0.486472
0.011430 0.035933 0.187345
-0.076970 0.011666 0.458409
-0.090575 0.096601 0.456779
-0.012191 0.079394 0.286481
0.006908 -0.065583 0.177225
-0.063829 -0.510650 0.510726
-0.041101 0.082148 0.384214
-0.073771 -0.204351 0.245856
-0.023454 0.066607 0.191652
-0.060005 -0.426640 0.442398
-0.039073 0.105615 0.338167
-0.048698 0.075977 0.228578
-0.036779 0.065147 0.176786
-0.087368 0.008160 0.178199
-0.085963 -0.000251 0.202237
-0.124183 0.072729 0.665666
-0.072484 -0.109371 0.126334
-0.034064 0.090413 0.346937
0.017113 0.030996 0.092178
0.012931 0.030690 0.193475
0.013180 0.005286 0.195857
-0.069447 -0.023098 0.274840
-0.074706 -0.189963 0.248477
-0.073064 -0.191458 0.273816
-0.043288 0.037562 0.428460
-0.015629 0.076625 0.231899
-0.087723 0.123513 0.672364
-0.011634 -0.238957 0.290455
-0.002809 -0.054266 0.195393
-0.022269 -0.251936 0.328224
-0.023839 0.023417 0.346851
-0.067234 -0.095646 0.095768
-0.034902 -0.019770 0.303025
-0.093980 0.016210 0.400644
-0.058195 -0.171433 0.288696
-0.124791 0.112846 0.727835
-0.074275 0.065156 0.203616
-0.062305 -0.179707 0.291557
-0.059854 0.050503 0.137905
-0.001456 -0.169378 0.174285
-0.090337 0.041947 0.222515
-0.064381 -0.022553 0.294238
-0.001317 0.060036 0.272047
-0.005160 -0.205216 0.210479
-0.108176 0.063948 0.534125
-0.010477 -0.014831 0.269193
-0.097568 0.026688 0.458435
-0.018407 -0.138634 0.254373
0.022120 -0.015105 0.136792
0.009781 -0.006049 0.206416
-0.067286 0.036158 0.547969
0.000171 0.058881 0.264321
-0.137608 0.102035 0.914355
-0.069651 -0.136541 0.238357
-0.036900 -0.077408 0.226944
-0.082401 -0.054550 0.102652
-0.012898 -0.011475 0.282010
-0.091715 0.042409 0.253122
0.001462 -0.179090 0.220368
-0.060702 0.108692 0.383218
-0.067285 -0.005667 0.386548
-0.077448 -0.119562 0.166427
0.007766 -0.143866 0.173425
-0.026219 -0.031187 0.263347
0.021127 -0.085055 0.092165
-0.027509 0.054114 0.131098
0.035214 -0.000024 0.083346
-0.098338 0.040617 0.410428
0.009540 0.038654 0.236407
-0.098231 0.090138 0.310477
-0.079665 -0.084792 0.181708
-0.021323 -0.044655 0.229793
-0.073202 -0.120579 0.219258
-0.090470 0.019873 0.318966
-0.057822 0.008018 0.421790
-0.098380 0.078583 0.389639
-0.023357 -0.178968 0.285353
-0.004594 -0.201848 0.254387
-0.025546 0.051347 0.087510
-0.067470 -0.148623 0.168875
-0.091049 0.034194 0.269957
0.011851 0.032759 0.171230
-0.080790 -0.077065 0.172397
0.020134 0.007525 0.137530
-0.085160 0.059920 0.634498
-0.019567 -0.056307 0.216986
-0.106009 0.057635 0.535689
-0.031727 -0.016487 0.305924
-0.093240 0.042316 0.298540
-0.095698 0.097854 0.504055
-0.080356 -0.088320 0.137800
-0.006905 -0.190638 0.261210
-0.071885 -0.007856 0.380685
0.008846 -0.119564 0.127685
-0.040476 -0.030323 0.279888
-0.011070 0.000830 0.296468
-0.012234 -0.242593 0.294134
-0.074298 -0.010904 0.322508
-0.021826 -0.060579 0.218111
-0.095361 0.031877 0.345043
0.032285 -0.023478 0.100801
-0.100855 0.074185 0.446077
-0.071368 -0.336376 0.364415
-0.014858 -0.319888 0.358864
-0.078960 -0.023599 0.226010
-0.046822 -0.593369 0.620210
-0.001124 -0.118030 0.215080
-0.081361 0.057290 0.199941
-0.016201 -0.211554 0.292772
-0.003346 0.063416 0.215670
0.012213 -0.032245 0.167778
0.008422 0.045956 0.211873
-0.142894 0.121788 0.915605
-0.011110 0.031663 0.319951
-0.014045 -0.133763 0.246170
0.007260 -0.137759 0.193542
-0.047647 0.060856 0.437449
-0.097502 0.053368 0.623066
-0.051955 -0.207394 0.321725
-0.069006 0.096590 0.485779
-0.018492 0.008045 0.322229
0.015048 -0.093178 0.164647
0.020746 -0.011698 0.142854
-0.002617 0.044277 0.293105
-0.093056 0.125815 0.685520
-0.083584 0.001123 0.322802
-0.098874 0.096136 0.322385
-0.059843 0.064887 0.185895
-0.122100 0.114721 0.907462
-0.060011 -0.025818 0.288965
-0.058899 -0.209088 0.321371
-0.014138 -0.184681 0.275139
-0.020139 0.051278 0.112653
-0.073995 0.039061 0.114926
-0.085034 0.067200 0.229869
-0.027023 0.094549 0.312489
-0.047683 -0.555460 0.573893
-0.070336 -0.240272 0.257660
-0.076989 0.053844 0.621025
-0.024888 0.057514 0.151511
-0.000724 -0.146823 0.146857
-0.069119 -0.272373 0.281488
-0.105705 0.090714 0.537609
-0.054795 -0.101539 0.236806
0.013793 -0.117603 0.149006
-0.078583 -0.069632 0.189133
-0.088403 0.123028 0.685217
-0.042767 -0.048849 0.238271
-0.039889 0.010153 0.371674
-0.061391 -0.422301 0.422585
-0.080881 -0.087061 0.163308
-0.051669 0.061449 0.170369
-0.081061 -0.013176 0.236049
-0.044843 0.067716 0.413670
-0.067256 -0.295968 0.373576
-0.088941 0.007734 0.351513
-0.071514 -0.015352 0.302252
-0.047677 -0.576837 0.600433
-0.006738 0.049164 0.304091
-0.071653 0.098804 0.490764
-0.066717 -0.294360 0.374067
-0.133870 0.091747 0.753445
-0.079473 0.123658 0.361869
-0.100490 0.045038 0.437947
0.011664 -0.126398 0.163717
-0.094519 0.044073 0.320264
-0.060795 -0.369174 0.411666
-0.096048 0.020960 0.433810
-0.133611 0.085443 0.754386
-0.004142 -0.087413 0.204211
-0.085890 0.051876 0.622785
-0.059610 -0.271449 0.365443
-0.024080 0.096982 0.279687
-0.030942 -0.214444 0.315777
-0.037899 -0.096219 0.235996
-0.094009 0.052682 0.293167
-0.091839 0.041004 0.268220
-0.034857 0.098556 0.335463
-0.073610 0.006899 0.441544
-0.002713 -0.023560 0.230812
-0.042301 0.090331 0.376526
-0.086856 0.000122 0.150155
-0.095635 0.019974 0.421463
-0.100049 0.034683 0.457152
-0.058666 -0.101130 0.234144
-0.063059 0.006633 0.428680
-0.075233 0.014582 0.469560
-0.085892 0.122295 0.668787
-0.021593 0.093446 0.277399
-0.088434 0.019887 0.264822
-0.088420 0.022119 0.196699
-0.092951 0.088109 0.790151
-0.029876 -0.103293 0.237890
-0.084362 0.110354 0.720975
-0.059679 -0.435290 0.454490
0.003127 0.044101 0.152557
-0.121315 0.076014 0.813492
-0.087004 0.099826 0.443456
-0.060387 -0.205939 0.217046
-0.023848 0.011088 0.337126
-0.052404 0.055365 0.149952
-0.064800 -0.019143 0.307760
-0.086240 -0.010863 0.153003
-0.073924 -0.272190 0.335516
-0.074267 -0.008567 0.376204
-0.059375 -0.412002 0.435648
0.022671 -0.081849 0.091912
-0.032089 -0.598090 0.615225
-0.083043 -0.062086 0.151515
-0.063884 -0.239892 0.342685
-0.076080 -0.134561 0.208374
-0.064255 -0.011184 0.363883
-0.035258 0.065216 0.176781
-0.148522 0.101996 0.943418
-0.082568 0.003464 0.428003
-0.107166 0.117057 0.623240
-0.063543 -0.250235 0.350119
0.003415 -0.165351 0.188951
-0.014899 -0.259066 0.318198
-0.058656 0.002994 0.408514
-0.060686 -0.201061 0.213015
-0.029390 0.095284 0.320290
-0.083469 0.045625 0.178268
-0.021299 0.083875 0.312058
-0.122006 0.077428 0.823135
-0.047632 -0.135960 0.262681
-0.079525 -0.006691 0.381484
-0.028288 0.066871 0.355376
-0.085119 -0.037182 0.115010
-0.075329 -0.267541 0.318590
-0.031211 -0.130464 0.130483
-0.003140 -0.120624 0.221013
-0.000188 -0.182856 0.234325
-0.099407 0.054956 0.417097
-0.105852 0.124622 0.691283
0.036440 -0.015842 0.084959
0.016074 0.000954 0.169621
-0.036164 0.064528 0.174785
-0.056805 -0.025111 0.295196
-0.045542 -0.544918 0.549171
-0.098974 0.079876 0.416297
0.029816 -0.059326 0.099641
-0.084292 -0.049644 0.128828
-0.086323 0.116943 0.709775
-0.020874 0.051181 0.109402
-0.094946 0.024956 0.355773
-0.040727 0.059594 0.158229
0.020736 -0.014463 0.142515
0.009616 0.035877 0.152382
-0.089039 0.022621 0.237662
-0.073290 -0.166909 0.246248
-0.065492 -0.079627 0.220649
-0.018549 -0.102942 0.102957
-0.043139 0.038328 0.428070
-0.019478 0.089452 0.264875
-0.052755 -0.524624 0.524950
-0.052136 -0.583540 0.618997
-0.085956 0.025083 0.141886
-0.085730 0.002575 0.344301
-0.043900 0.010946 0.387201
-0.033537 -0.276708 0.360774
-0.033619 0.001890 0.346383
-0.049656 -0.097077 0.236226
-0.089716 0.032532 0.212540
-0.051537 -0.617694 0.660501
-0.093435 0.012146 0.425015
-0.074102 -0.175756 0.228161
-0.079227 0.109693 0.387732
-0.083535 -0.022709 0.190674
-0.056885 -0.394652 0.431534
-0.068567 -0.234371 0.332373
-0.097735 0.038596 0.392169
-0.061181 0.100274 0.409871
-0.086407 -0.002951 0.171641
-0.023941 0.052672 0.351023
-0.030482 0.104415 0.302857
-0.009090 -0.054979 0.205569
-0.037279 -0.610913 0.636202
-0.081004 -0.084882 0.162673
0.017585 0.015044 0.146765
-0.093202 0.111942 0.361210
-0.039165 -0.306458 0.382846
-0.128995 0.080196 0.800550
-0.051615 -0.589577 0.625476
-0.066707 -0.252885 0.259776
-0.092351 0.112366 0.768869
0.026222 0.030281 0.064930
-0.060120 -0.425576 0.440066
-0.075550 -0.241919 0.293736
-0.020742 0.033475 0.344666
-0.087407 0.012280 0.215663
-0.015059 -0.175170 0.272007
-0.073770 -0.150485 0.192996
-0.010744 -0.222896 0.284250
-0.086403 -0.001316 0.128678
-0.095867 0.071428 0.298403
-0.063364 -0.383379 0.408027
-0.068481 0.058453 0.177953
-0.085965 -0.010583 0.165798
-0.072047 -0.286472 0.302252
-0.127764 0.073830 0.729043
0.004700 0.054124 0.230971
-0.001139 -0.181610 0.190815
-0.038812 -0.199504 0.311464
-0.089510 0.034009 0.536726
-0.075041 -0.273717 0.311401
-0.157208 0.105457 0.966726
-0.091024 0.033894 0.270271
-0.014543 -0.260689 0.318754
-0.081677 -0.071362 0.128023
-0.031604 -0.033792 0.263746
-0.095400 0.093930 0.478550
-0.135229 0.140133 0.911017
-0.049008 -0.227443 0.335751
-0.028989 0.088326 0.331189
-0.028021 -0.225698 0.319334
0.012729 -0.063396 0.164003
-0.070955 -0.214283 0.307110
-0.093865 0.018126 0.371726
-0.087313 0.121998 0.645255
-0.073580 -0.072912 0.077930
-0.060777 -0.136367 0.140820
-0.067065 0.051466 0.154401
-0.078174 -0.042906 0.201271
-0.046421 -0.013151 0.334897
-0.072638 -0.319652 0.347633
-0.064751 -0.015595 0.331104
-0.094043 0.014015 0.428806
0.011651 0.002222 0.204673
-0.072642 -0.315599 0.352789
-0.066015 0.048723 0.587797
-0.055001 -0.387636 0.429024
-0.071386 -0.036856 0.233223
-0.038468 -0.623186 0.659940
-0.083507 0.007796 0.094413
-0.080208 -0.065161 0.179839
-0.094283 0.027328 0.502316
-0.021146 -0.369582 0.404695
0.027371 -0.030558 0.118711
-0.022325 0.001767 0.322991
-0.084124 0.003177 0.267397
-0.079841 -0.002752 0.399822
-0.080505 0.034591 0.128871
-0.085649 -0.007956 0.183692
-0.108602 0.084691 0.540461
-0.086072 0.071091 0.237730
0.014734 0.010383 0.184723
-0.091661 0.028747 0.516055
0.001341 0.044105 0.091449
-0.067165 0.044806 0.574592
-0.101030 0.060780 0.434258
-0.082135 -0.005066 0.255696
-0.041085 0.022674 0.405428
-0.070770 -0.129692 0.231348
-0.019924 -0.278944 0.345979
-0.106869 0.061452 0.521459
-0.006744 -0.125641 0.230680
-0.059788 -0.487847 0.515960
-0.071810 -0.113839 0.130881
-0.070338 -0.292689 0.302131
-0.038256 -0.092705 0.233991
-0.080359 -0.004417 0.295147
-0.085087 -0.030025 0.104111
-0.128433 0.081844 0.686657
-0.075826 -0.134775 0.183511
-0.092660 0.096706 0.414035
-0.005382 0.059953 0.291710
-0.033585 -0.616430 0.645347
-0.060488 -0.423512 0.432730
0.002836 -0.170568 0.211200
-0.086778 0.107234 0.745886
-0.099829 0.037319 0.444508
-0.098456 0.088356 0.472423
-0.041161 0.052497 0.414329
-0.021274 -0.271761 0.343180
-0.080993 -0.087318 0.158552
-0.043359 -0.287379 0.374052
0.013139 -0.120570 0.158044
-0.054153 0.062623 0.175812
-0.051303 0.013809 0.422124
-0.046742 -0.355804 0.414377
-0.074008 0.105748 0.408701
-0.074194 -0.107652 0.212389
-0.022522 -0.013913 0.297034
-0.125339 0.113151 0.907894
-0.025500 0.055456 0.140293
-0.084374 0.105941 0.731928
-0.049330 -0.439546 0.479891
-0.071461 -0.199992 0.234121
-0.079373 -0.071668 0.105606
-0.074164 -0.191150 0.264239
-0.063990 0.021999 0.484903
0.020084 -0.093604 0.112190
-0.029366 -0.020643 0.293166
-0.110022 0.075070 0.528524
0.004851 -0.134455 0.204825
-0.051909 -0.603406 0.643386
0.001892 -0.112327 0.205379
-0.061914 -0.095205 0.229775
-0.105364 0.123937 0.719886
-0.072662 -0.085007 0.094049
-0.052195 -0.163757 0.164152
-0.086937 0.008564 0.221187
-0.095074 0.036652 0.336568
-0.052946 0.050411 0.125201
-0.096422 0.090282 0.461175
-0.074149 -0.008700 0.375777
-0.043949 -0.123817 0.254457
-0.064982 -0.228672 0.333053
-0.068666 -0.258907 0.269213
0.008627 -0.031288 0.179053
-0.015890 0.079807 0.300522
0.009731 -0.007847 0.203905
-0.059953 -0.194731 0.307764
-0.118020 0.072057 0.798131
-0.002910 -0.017402 0.243392
-0.068968 0.096766 0.461401
-0.172293 0.124358 0.995312
-0.040188 0.075827 0.227110
-0.018691 -0.015379 0.287381
-0.079620 0.103118 0.424981
-0.063350 0.105013 0.398429
-0.012260 0.043591 0.320788
-0.024801 -0.347737 0.392703
-0.068030 -0.192454 0.293590
-0.008722 0.057793 0.304361
0.015260 0.014474 0.174299
-0.093169 0.126093 0.684044
0.002983 -0.143481 0.213989
-0.076258 -0.030820 0.226460
-0.108470 0.063584 0.541376
0.014255 -0.115827 0.155492
-0.035706 -0.407547 0.453478
-0.015404 0.019851 0.325348
-0.010652 0.037969 0.318243
-0.090548 0.072517 0.250508
-0.068963 -0.001415 0.406842
-0.073474 -0.087257 0.099976
-0.046298 0.030677 0.436997
-0.066929 -0.148477 0.252904
-0.083056 -0.043964 0.093669
-0.127240 0.116602 0.751265
-0.011113 0.072422 0.296267
-0.060390 0.010072 0.433979
-0.005249 -0.003084 0.274846
-0.043104 0.028823 0.422893
0.027899 -0.043441 0.116881
-0.018911 0.010363 0.325558
-0.138902 0.101077 0.794063
-0.098432 0.048601 0.399867
-0.057200 -0.171896 0.289970
-0.052318 -0.027575 0.289353
-0.073917 -0.119179 0.145351
-0.062457 0.045280 0.107638
-0.041962 -0.018883 0.312830
-0.085265 -0.008401 0.103617
-0.037743 0.040669 0.403863
-0.076249 -0.016581 0.264205
-0.090269 0.097784 0.430167
-0.032736 -0.010750 0.320809
-0.101912 0.041470 0.464258
-0.094129 0.100341 0.511840
-0.098233 0.046234 0.388379
-0.074420 -0.180610 0.240201
-0.072592 -0.167324 0.250529
-0.045994 -0.021490 0.308985
-0.000821 0.051708 0.281109
-0.082648 0.097149 0.737395
0.001145 -0.108843 0.205483
-0.049372 0.065046 0.441479
0.011591 0.018370 0.223416
-0.020686 -0.002204 0.313645
0.013419 -0.088003 0.168773
-0.090707 0.119383 0.723563
-0.084185 -0.035300 0.169749
-0.060236 0.088862 0.461726
0.024069 -0.036571 0.129873
-0.108386 0.123878 0.741076
-0.074127 -0.195435 0.270496
-0.011664 0.025650 0.319252
-0.082955 0.103402 0.726926
-0.025442 -0.239172 0.323898
-0.022812 -0.110339 0.238830
-0.038345 -0.235686 0.335186
-0.103823 0.044708 0.497227
-0.062763 0.105817 0.396020
-0.095746 0.028424 0.500268
-0.099610 0.060623 0.415578
-0.087614 0.013392 0.224196
-0.053070 -0.586897 0.626096
-0.069724 -0.040359 0.231533
-0.095336 0.124520 0.700314
-0.011409 0.074489 0.229318
-0.034539 0.047707 0.388650
-0.099289 0.076617 0.417744
0.023370 -0.076357 0.079455
-0.099265 0.102577 0.326930
-0.073411 -0.192326 0.272413
-0.090456 0.034472 0.231590
0.008877 -0.012427 0.200982
-0.063965 -0.392049 0.404432
-0.086671 0.007631 0.141062
-0.023656 -0.178279 0.285300
-0.054025 0.115822 0.359124
0.007022 -0.133021 0.195323
-0.046124 0.001621 0.370957
-0.018280 -0.324074 0.367570
-0.047592 -0.379218 0.428228
0.019166 0.005816 0.146230
-0.041996 -0.396694 0.443481
-0.054953 -0.515882 0.545971
-0.094933 0.021878 0.460161
-0.062178 0.125615 0.356277
-0.087748 0.114500 0.726757
0.011749 0.035714 0.207197
-0.073366 -0.217979 0.298852
-0.055529 -0.416003 0.448993
-0.018706 -0.303605 0.358411
-0.102350 0.121386 0.790857
-0.084552 0.004807 0.276891
-0.093417 0.037893 0.313538
-0.096805 0.045609 0.355047
-0.091004 0.030249 0.283832
-0.055044 -0.458186 0.492731
-0.018433 -0.130932 0.249464
-0.065291 -0.383049 0.393580
0.024212 -0.039455 0.129426
-0.047589 -0.341609 0.405799
-0.062833 -0.370869 0.408356
-0.072014 -0.301382 0.318276
-0.034657 -0.176546 0.293660
-0.016178 0.059601 0.167793
-0.005326 -0.218999 0.243232
0.005212 -0.157582 0.193261
-0.035710 0.012855 0.365117
-0.051068 -0.538943 0.554043
0.007272 -0.114254 0.191436
-0.082667 -0.037815 0.181794
-0.062142 -0.163065 0.175925
0.011847 0.028921 0.223634
-0.079505 -0.080524 0.120024
-0.041655 -0.218417 0.327105
-0.090010 0.036348 0.217451
-0.058859 -0.383705 0.420926
-0.062601 -0.163837 0.177348
-0.087928 0.005529 0.350446
-0.003668 -0.131031 0.227284
0.002028 0.055411 0.260137
-0.070612 -0.336733 0.347414
-0.090465 0.032204 0.249235
-0.098439 0.083208 0.435223
-0.054537 -0.522161 0.556547
0.038204 -0.004084 0.075501
0.006589 -0.124490 0.130894
-0.069447 -0.229547 0.248353
0.011446 0.035749 0.186213
-0.019688 -0.015375 0.289080
-0.077450 0.050100 0.602472
-0.132178 0.138351 0.917045
-0.030904 0.088706 0.337365
-0.019338 -0.358283 0.392931
-0.096818 0.095365 0.367507
-0.089227 0.024491 0.222975
-0.005643 0.002911 0.284228
0.017766 -0.002410 0.157676
-0.037233 -0.196520 0.308289
-0.000198 0.056603 0.200322
-0.080080 0.052185 0.184621
-0.029249 0.035623 0.368882
-0.098894 0.096204 0.313778
-0.063196 -0.255566 0.353757
-0.122697 0.084592 0.855527
-0.056593 0.058537 0.165508
-0.132834 0.106344 0.743022
-0.083519 -0.000393 0.089250
-0.053011 0.078916 0.441056
-0.060955 -0.154619 0.163934
-0.042024 -0.366677 0.419765
-0.003987 -0.170403 0.246159
-0.093220 0.051150 0.276210
-0.073895 -0.297662 0.338307
-0.074516 -0.088676 0.105124
-0.080903 0.011010 0.455676
-0.095258 0.023637 0.379153
0.015239 -0.020355 0.162065
-0.084484 0.039991 0.168114
0.023572 -0.036665 0.131548
-0.024470 -0.132499 0.255215
-0.046764 -0.129300 0.257848
-0.072533 -0.239109 0.324382
-0.052724 -0.156305 0.156458
-0.051310 -0.593230 0.628594
-0.113411 0.123039 0.753802
-0.053436 -0.436244 0.471658
-0.036980 -0.014464 0.318439
-0.066163 -0.261267 0.265664
-0.096733 0.097544 0.363442
0.004131 -0.133432 0.207180
-0.009689 -0.238823 0.280390
-0.085125 0.000082 0.231180
0.006361 -0.070790 0.179167
-0.036362 -0.285052 0.368391
-0.080942 -0.006922 0.374390
-0.097530 0.039805 0.376345
-0.044769 -0.302686 0.383325
-0.065854 -0.019206 0.304823
-0.053817 -0.649092 0.714316
-0.014049 -0.081326 0.213938
0.013452 -0.098320 0.170875
-0.109716 0.073310 0.528896
-0.127161 0.106476 0.703343
-0.073404 -0.136130 0.226195
-0.047506 0.060449 0.437179
-0.017718 0.042089 0.337084
-0.098175 0.094112 0.338968
-0.033371 0.026397 0.376555
-0.041817 -0.262937 0.356709
-0.127822 0.079872 0.679327
-0.069076 -0.269933 0.279539
0.006569 -0.090857 0.186251
0.034069 -0.044230 0.083026
-0.069812 -0.105145 0.113845
-0.079405 -0.105466 0.174126
-0.039145 -0.266437 0.357467
-0.054113 0.063269 0.177407
-0.003796 -0.207951 0.245728
0.028468 -0.066884 0.097365
-0.067426 0.055794 0.613486
-0.084516 0.101462 0.742599
-0.087680 0.015740 0.169461
-0.087544 0.000945 0.368091
-0.078273 -0.048853 0.196782
-0.076045 -0.123968 0.163122
-0.099708 0.083436 0.458966
-0.084619 0.107753 0.728879
-0.098064 0.049410 0.380457
-0.090848 0.031606 0.273071
-0.125132 0.075754 0.673627
-0.096953 0.048229 0.559649
-0.042891 -0.424295 0.469862
-0.010554 -0.016533 0.265625
-0.103269 0.122676 0.646958
-0.068903 -0.157894 0.183580
-0.087710 0.104936 0.391490
-0.068889 -0.254640 0.346378
-0.085796 -0.032548 0.132696
-0.073844 -0.298787 0.338592
-0.091538 0.023510 0.324069
-0.127584 0.074420 0.739382
-0.069723 -0.331587 0.336279
0.010408 -0.006554 0.201976
-0.102442 0.040090 0.476988
-0.031425 -0.086670 0.229045
-0.024986 -0.277795 0.352494
-0.030730 -0.224772 0.322197
-0.060938 -0.495692 0.517127
-0.075435 0.048331 0.161329
0.006853 0.041254 0.085986
-0.092945 0.012797 0.395744
-0.100029 0.037159 0.507841
-0.087618 0.070777 0.241527
-0.034550 -0.144857 0.269895
-0.055347 -0.518547 0.523020
-0.051063 -0.211096 0.324559
-0.071653 0.059672 0.186089
-0.081940 0.030212 0.122748
-0.085876 -0.030735 0.133270
0.005744 -0.067457 0.179918
-0.035409 -0.082751 0.228838
-0.070415 -0.094013 0.218430
-0.095722 0.033940 0.347011
-0.050637 -0.543914 0.563282
-0.006529 0.054956 0.167064
-0.090548 0.097135 0.454801
-0.003235 0.050269 0.155822
-0.097029 0.024796 0.441952
-0.091051 0.027796 0.294365
-0.000282 0.043782 0.106750
-0.016584 -0.005561 0.299820
-0.079299 -0.015729 0.241603
-0.118566 0.066279 0.657602
-0.061704 -0.182409 0.196354
-0.005418 0.007172 0.288502
-0.050887 0.010477 0.411438
-0.051714 -0.610771 0.651912
-0.092777 0.055896 0.263028
-0.032199 -0.061053 0.224554
-0.088545 0.009693 0.441090
-0.034790 0.053674 0.386350
0.020297 -0.083568 0.085102
-0.045660 -0.177876 0.298513
-0.079515 0.103104 0.508253
-0.066657 -0.029387 0.264296
-0.116303 0.064237 0.655751
-0.097136 0.082995 0.301276
-0.052932 -0.022214 0.307901
-0.084908 -0.041549 0.147618
-0.084991 0.107483 0.731916
-0.061445 -0.184434 0.198077
0.013225 0.008188 0.199405
0.032227 -0.038943 0.098709
-0.082727 0.067851 0.223534
-0.129988 0.125174 0.912498
-0.027715 -0.244479 0.330642
-0.022663 -0.019434 0.286360
-0.026553 -0.142909 0.264087
-0.141679 0.111296 0.924803
-0.079223 -0.105573 0.154562
-0.101062 0.043668 0.522961
-0.043949 -0.548183 0.552194
-0.049164 0.011335 0.408584
-0.085589 -0.034859 0.138251
-0.074553 -0.270983 0.302993
-0.133863 0.094286 0.742409
-0.074752 -0.262081 0.298418
0.011064 -0.005359 0.199211
-0.063199 0.010958 0.442197
-0.035884 0.060332 0.160388
-0.006565 -0.154616 0.244867
-0.092821 0.035523 0.304246
-0.017642 -0.031011 0.250317
-0.053053 -0.535274 0.557114
-0.064839 -0.148086 0.162688
-0.046492 -0.226023 0.334105
-0.061318 0.025567 0.493058
0.022900 -0.043680 0.134411
-0.000435 -0.173731 0.182532
-0.119206 0.121396 0.746724
-0.097711 0.060372 0.368833
0.014425 -0.011947 0.171655
-0.050328 0.118602 0.349241
-0.030154 0.055261 0.138213
-0.002479 -0.202836 0.231343
-0.073986 -0.294116 0.331665
-0.030178 -0.177293 0.291079
-0.132520 0.092548 0.745157
-0.054107 0.093910 0.406044
-0.057022 -0.513704 0.522880
0.022675 0.008895 0.121906
-0.072422 -0.131412 0.226760
-0.048567 -0.173513 0.295542
0.012680 0.025950 0.213584
-0.077147 0.099510 0.699809
-0.076792 -0.020876 0.243977
0.016913 -0.107157 0.141712
-0.131895 0.082486 0.741020
0.026061 -0.035324 0.123205
-0.098932 0.065478 0.397078
0.034340 -0.013843 0.092833
0.013037 0.027535 0.205997
-0.104824 0.088035 0.510586
-0.071505 -0.315898 0.363370
-0.068968 -0.301623 0.306295
0.000822 0.046928 0.155490
-0.022426 0.001800 0.323241
-0.037439 -0.259537 0.351188
-0.087802 0.004035 0.417591
-0.027898 -0.037026 0.251783
-0.066701 -0.014534 0.334767
-0.046615 0.017685 0.416409
-0.083081 -0.047452 0.098340
0.002921 -0.104556 0.199336
0.025431 -0.066588 0.126727
-0.058140 0.073181 0.219747
-0.061845 -0.008397 0.371584
-0.027729 0.101244 0.296301
-0.005361 0.070783 0.246922
-0.077781 -0.006651 0.385373
-0.041460 0.067768 0.188284
-0.129240 0.097253 0.690973
-0.143554 0.122916 0.914853
-0.005018 -0.217054 0.245827
-0.009679 -0.050108 0.208294
-0.130243 0.086144 0.869995
-0.005650 -0.132489 0.232172
-0.085573 -0.022687 0.110248
-0.014396 0.019103 0.322560
-0.074402 -0.182943 0.241132
-0.050411 -0.129746 0.256942
0.041487 -0.002800 0.062620
-0.082121 -0.039451 0.183535
-0.059471 -0.150752 0.157505
-0.047394 -0.550733 0.565393
0.031540 -0.055922 0.072699
-0.041543 0.050353 0.087801
-0.092819 0.011913 0.397085
-0.063827 -0.208882 0.316945
-0.127931 0.117082 0.761546
-0.082660 -0.005407 0.248420
-0.089334 0.026068 0.214735
-0.071277 -0.315375 0.328990
-0.049521 -0.290747 0.378269
-0.075467 -0.236651 0.284338
0.017516 -0.068986 0.153535
-0.044588 -0.425235 0.470125
-0.073928 -0.055474 0.207025
-0.166197 0.114558 0.983059
-0.046562 -0.317663 0.392755
-0.005043 -0.026445 0.232237
-0.012658 -0.213401 0.285933
-0.092487 0.018145 0.349645
-0.036308 0.067486 0.192020
-0.073472 0.025012 0.513186
-0.029752 -0.325385 0.384764
-0.085871 0.109467 0.732447
-0.049318 -0.039647 0.256519
-0.064262 -0.392425 0.393445
-0.083401 -0.005540 0.236690
0.002811 -0.106023 0.200333
-0.072495 0.052453 0.167144
-0.072189 -0.115682 0.134431
-0.122273 0.083790 0.850157
-0.010123 0.006089 0.300049
-0.085465 0.036220 0.164285
-0.134380 0.095051 0.775158
-0.016152 0.050619 0.116097
-0.079027 -0.082859 0.119533
-0.031651 0.072891 0.361551
-0.086119 -0.006766 0.170864
-0.022416 0.053223 0.346345
-0.077231 -0.111694 0.197534
0.017102 -0.084077 0.156121
0.010385 0.024488 0.236045
-0.065993 -0.315570 0.382200
-0.073607 -0.298354 0.344016
0.009845 -0.126285 0.181399
-0.069293 -0.026191 0.266230
0.017056 -0.077273 0.156520
-0.028009 -0.034126 0.258854
-0.078089 0.001307 0.422812
0.001014 -0.174789 0.190541
-0.128113 0.090685 0.881996
-0.129913 0.122629 0.799488
-0.037982 0.056480 0.144655
-0.096551 0.075721 0.308000
-0.064157 -0.165073 0.274455
-0.095652 0.051009 0.325155
-0.062253 -0.502756 0.514365
-0.083657 -0.058620 0.141436
-0.091334 0.096673 0.445949
-0.090185 0.044544 0.562289
-0.097365 0.077799 0.335347
-0.002919 -0.107766 0.213574
-0.079423 -0.006130 0.291406
-0.067548 -0.212174 0.313935
-0.107238 0.084176 0.514996
-0.101387 0.048620 0.538922
-0.070647 0.008558 0.443508
-0.082087 0.006318 0.081921
-0.061918 -0.198513 0.212499
-0.058991 0.088739 0.445217
-0.085015 0.003409 0.106635
-0.108444 0.123551 0.696842
0.041440 -0.004087 0.063228
-0.119828 0.111526 0.668975
-0.091758 0.034991 0.284330
-0.047709 0.049088 0.074258
-0.040415 0.050531 0.077829
-0.093998 0.056844 0.282998
-0.003563 0.065352 0.273929
0.038272 -0.035429 0.061832
-0.085943 -0.011665 0.162432
-0.068288 -0.071844 0.215459
-0.072253 -0.325487 0.356317
-0.135580 0.086972 0.794138
-0.054752 -0.616936 0.665612
-0.055895 -0.198152 0.204411
-0.075595 -0.220396 0.276676
-0.062703 0.046777 0.121922
-0.097347 0.088911 0.292278
-0.086302 -0.017773 0.136373
-0.087780 0.106792 0.385213
-0.087760 0.013722 0.184382
-0.022457 0.027759 0.346893
-0.017636 0.042608 0.336850
-0.073634 -0.032299 0.235568
-0.063733 -0.186894 0.296350
0.036593 -0.033566 0.078349
-0.032609 0.077868 0.359279
-0.073334 -0.227463 0.308151
0.008146 0.046084 0.206696
-0.087282 0.100795 0.489468
-0.008821 -0.021181 0.252109
-0.057410 0.098811 0.404174
-0.074098 0.099565 0.463913
-0.107614 0.065939 0.517116
-0.096647 0.023032 0.443909
-0.083814 -0.057160 0.141596
-0.088194 0.027114 0.179402
-0.091855 0.046045 0.251253
-0.061530 0.006940 0.427033
-0.105371 0.081226 0.501172
-0.018171 -0.140452 0.255260
-0.030358 0.003137 0.341612
-0.086390 -0.000357 0.128854
-0.131975 0.096999 0.721923
-0.142980 0.097249 0.922959
-0.049184 0.081569 0.411249
0.016218 0.014000 0.162017
0.017686 -0.102854 0.146050
-0.084072 0.001081 0.095081
0.001221 -0.173509 0.189567
-0.071664 -0.191265 0.279553
0.034612 -0.013833 0.091844
-0.086389 0.051413 0.618254
-0.027574 0.082604 0.333873
-0.062399 0.042980 0.074952
-0.059097 -0.305435 0.385225
-0.038821 0.034093 0.408564
-0.094257 0.097054 0.402421
-0.063383 0.046088 0.119409
-0.100593 0.041050 0.445812
-0.091370 0.106032 0.782981
-0.008381 0.026336 0.310382
0.012041 -0.115014 0.129347
0.004586 -0.159137 0.201937
-0.062942 -0.115883 0.115900
-0.074149 -0.288355 0.320587
-0.013514 -0.233955 0.295553
-0.075403 -0.233947 0.281059
-0.055805 -0.502928 0.531469
-0.044729 -0.028400 0.287419
-0.024578 -0.034665 0.252464
-0.057126 -0.272043 0.366268
-0.081438 -0.065756 0.112388
-0.069413 -0.144328 0.244647
-0.032100 0.051712 0.107224
-0.111218 0.076945 0.534495
-0.028183 0.082284 0.243868
-0.127718 0.085231 0.670367
-0.020159 -0.137569 0.255155
-0.005500 -0.164043 0.247462
-0.098161 0.083831 0.411999
-0.139269 0.107948 0.785412
-0.056314 -0.497378 0.527790
-0.079694 -0.069520 0.182667
-0.039905 -0.263322 0.355746
-0.097399 0.042247 0.539632
-0.045156 0.120513 0.333813
-0.077640 -0.058710 0.194018
-0.075029 -0.114710 0.210882
-0.098425 0.082679 0.413748
-0.087201 0.008489 0.194943
0.019326 0.024639 0.104530
-0.072445 0.020556 0.494414
-0.095256 0.017876 0.431709
-0.043473 -0.341361 0.404410
-0.052028 -0.138529 0.262984
-0.037440 0.076711 0.229430
0.001686 0.056577 0.210564
0.026103 -0.068530 0.121270
0.016189 0.024792 0.124953
0.030967 0.011955 0.085358
-0.085383 0.000887 0.109824
-0.090281 0.120086 0.624111
-0.061832 -0.017115 0.326214
-0.081489 0.051947 0.617365
0.014318 0.018949 0.190504
-0.069084 -0.235397 0.251088
-0.073337 -0.011214 0.349678
-0.032997 -0.053223 0.229164
-0.088933 0.022898 0.215795
-0.076969 -0.128290 0.181743
-0.097531 0.090197 0.472865
-0.087437 0.050568 0.608099
-0.067248 0.009289 0.442368
-0.022633 -0.089774 0.225576
-0.013983 0.082621 0.259634
-0.029156 0.052390 0.115826
-0.013029 -0.118507 0.235693
-0.102939 0.061991 0.458276
-0.088288 0.098497 0.469635
-0.050960 0.001172 0.380085
-0.095548 0.095320 0.391125
0.025279 -0.078029 0.111277
-0.045611 0.053942 0.137449
-0.102402 0.081468 0.480811
0.001439 0.052379 0.269500
-0.046291 0.077128 0.407052
-0.036047 0.058450 0.152998
-0.023924 -0.292526 0.360189
-0.054107 -0.436308 0.470549
-0.176599 0.127572 1.000690
0.005779 -0.153603 0.180828
-0.075249 -0.149919 0.215016
-0.086349 -0.006100 0.127016
-0.080146 -0.061301 0.093203
-0.069232 -0.249794 0.262595
-0.040868 -0.003326 0.350940
-0.071016 -0.341334 0.355615
-0.065104 -0.047549 0.230258
-0.021314 0.016859 0.336703
-0.011757 -0.188381 0.272193
-0.078121 -0.108149 0.148290
-0.065119 -0.121289 0.125857
-0.033875 -0.189374 0.301347
-0.050047 -0.027620 0.289708
-0.075409 -0.243043 0.289204
-0.078488 0.100169 0.459475
-0.064860 -0.490613 0.510694
-0.079248 -0.063025 0.186161
0.003311 0.002886 0.253378
-0.044499 -0.175727 0.297040
-0.112568 0.114625 0.903210
0.002458 -0.174025 0.201458
-0.015871 -0.010988 0.289507
-0.055483 -0.176249 0.181056
-0.101951 0.038253 0.495490
0.011309 0.026891 0.230077
-0.071354 -0.298163 0.362116
0.008709 0.010077 0.233977
-0.097830 0.051055 0.375722
-0.074977 -0.071925 0.201629
-0.086365 0.000641 0.189848
-0.090952 0.006561 0.386801
-0.106324 0.074432 0.500531
-0.102160 0.096607 0.523753
-0.026061 0.079064 0.333619
0.004065 -0.081365 0.187365
-0.018355 -0.146835 0.259541
-0.045122 -0.270025 0.362951
-0.074245 -0.161474 0.212084
0.014348 0.001591 0.181501
-0.037798 -0.553531 0.555425
0.012175 -0.120753 0.169574
0.003529 -0.164862 0.208030
-0.060217 -0.013942 0.347651
-0.018172 -0.358666 0.391301
-0.050265 0.067730 0.443094
0.019868 -0.028222 0.143906
-0.117611 0.108931 0.899042
-0.140445 0.096195 0.789321
-0.079757 -0.078668 0.182120
-0.042979 0.028982 0.422478
-0.007084 -0.002040 0.281875
0.007053 -0.058306 0.175605
-0.081311 0.102613 0.501779
-0.075069 -0.251816 0.312939
0.016412 -0.099048 0.158101
-0.039343 -0.178451 0.297442
-0.097622 0.084884 0.428531
-0.050967 -0.280667 0.371943
0.015952 0.017223 0.158381
-0.037207 -0.114272 0.247139
-0.039772 0.050700 0.090568
-0.093985 0.037874 0.323307
0.011577 -0.017943 0.180214
0.039807 0.007191 0.061700
-0.066013 -0.164091 0.183535
-0.007130 -0.066992 0.201192
-0.098283 0.031995 0.432709
-0.067992 -0.246888 0.257230
-0.075226 -0.200483 0.254769
-0.047207 0.004554 0.379802
-0.023200 0.058881 0.344590
0.007186 0.037918 0.138593
-0.072653 0.109519 0.391894
-0.031957 0.090657 0.338469
-0.081683 0.068256 0.221802
-0.075249 -0.246702 0.290587
-0.007889 -0.040852 0.214157
0.005612 0.041501 0.151630
-0.099923 0.048308 0.547929
-0.070552 -0.266377 0.348404
0.013275 0.019492 0.206308
-0.133353 0.087721 0.729458
-0.004417 0.065980 0.222102
-0.063908 -0.364542 0.403766
-0.039656 -0.142517 0.268982
0.004200 -0.162502 0.189889
-0.117863 0.113939 0.669767
0.005899 0.047085 0.186627
-0.075082 -0.213797 0.281839
-0.002027 0.063857 0.225731
-0.101284 0.041376 0.514486
-0.034494 0.076165 0.368298
-0.041889 0.050226 0.418708
-0.082400 -0.069479 0.148507
-0.007370 0.025976 0.307350
-0.095103 0.124295 0.644941
-0.073803 0.010282 0.452458
0.006359 -0.093710 0.187802
-0.022013 0.051242 0.089246
-0.042845 -0.077706 0.228461
-0.034979 -0.324698 0.389717
-0.065393 0.045281 0.119499
-0.076530 -0.122970 0.164361
-0.076428 -0.102680 0.131517
-0.087571 0.010604 0.318731
-0.051944 -0.529620 0.577387
-0.095558 0.116617 0.779994
-0.094630 0.095008 0.480802
-0.098917 0.100681 0.528404
-0.076219 -0.126358 0.206534
-0.019831 0.018008 0.334451
-0.056219 -0.025754 0.293497
-0.064878 -0.119182 0.237309
0.009089 -0.112123 0.114747
-0.096666 0.097082 0.366247
-0.049436 -0.018833 0.319757
-0.056128 0.126239 0.349064
-0.073531 -0.189528 0.268156
-0.087398 0.020927 0.155729
-0.077378 -0.008183 0.314142
-0.095260 0.047619 0.324549
-0.069914 0.039880 0.098273
-0.068584 -0.358354 0.383429
-0.066660 0.053439 0.160224
-0.133494 0.106354 0.747160
-0.080786 0.024517 0.513051
0.017111 -0.034510 0.151341
-0.052216 0.118168 0.352285
-0.098526 0.098557 0.336642
-0.110805 0.100810 0.877965
0.004540 0.041202 0.099894
-0.071213 -0.270052 0.285565
-0.048000 -0.404280 0.448600
-0.122740 0.111370 0.692341
0.011098 -0.026646 0.173602
-0.050334 0.091712 0.398417
-0.044185 -0.030720 0.280795
-0.024062 0.009025 0.335498
-0.103804 0.064156 0.468052
-0.066194 0.125748 0.358885
0.025515 -0.048604 0.126228
-0.000599 -0.183574 0.196086
-0.122471 0.119261 0.744030
-0.037487 -0.558916 0.563761
-0.042996 0.049222 0.423764
-0.029142 0.073684 0.351091
-0.054053 -0.393103 0.434006
-0.069293 -0.166775 0.194606
-0.076222 -0.071210 0.198317
-0.048011 -0.353984 0.413446
-0.073717 -0.201850 0.281368
-0.083157 -0.056081 0.113653
0.002558 -0.128705 0.210842
-0.096667 0.097129 0.366078
-0.072463 -0.316216 0.355037
-0.078684 -0.074568 0.105475
-0.086842 0.103916 0.518750
-0.023065 0.060771 0.342506
-0.090445 0.117127 0.361495
-0.038934 -0.568033 0.579116
-0.039179 -0.599588 0.619830
-0.042224 -0.108930 0.243806
-0.106156 0.078761 0.502869
-0.013507 -0.154045 0.257436
-0.085245 -0.006129 0.199737
0.022409 -0.050122 0.136942
-0.060825 -0.415458 0.429067
-0.052160 0.053232 0.140117
-0.002750 -0.181041 0.245344
-0.082116 -0.071892 0.149662
-0.079314 -0.088478 0.129488
-0.068464 -0.216848 0.238213
-0.095970 0.063248 0.314805
-0.059928 -0.173590 0.183557
-0.071375 -0.213678 0.243080
-0.070036 0.004957 0.432022
0.025056 -0.006519 0.124386
-0.050263 0.108735 0.365758
-0.055313 -0.636178 0.697727
-0.025131 -0.016736 0.296133
-0.015398 -0.275951 0.334883
-0.088430 0.023553 0.190949
-0.059258 -0.189018 0.302981
-0.100020 0.073108 0.429101
-0.055899 -0.515501 0.534460
0.014662 -0.043426 0.157983
-0.032381 -0.231006 0.327161
0.001122 -0.017866 0.228482
-0.043786 -0.309461 0.386843
-0.097704 0.080226 0.358395
-0.028004 0.054798 0.135976
-0.008793 0.068862 0.293130
-0.090155 0.029737 0.239623
-0.072864 -0.263102 0.286051
-0.067277 -0.011775 0.361894
-0.029772 -0.252220 0.338804
0.004028 0.051267 0.197896
-0.063142 -0.386271 0.410523
-0.054345 -0.516464 0.551930
-0.130226 0.080908 0.698974
-0.092712 0.043734 0.281174
-0.036791 0.027213 0.393161
-0.064513 -0.388674 0.401493
-0.095861 0.061349 0.313708
-0.067614 0.033743 0.540437
-0.135778 0.103555 0.911448
-0.087728 0.014298 0.200559
-0.024916 -0.072653 0.220528
-0.024803 0.007640 0.335609
-0.067128 -0.136086 0.151680
-0.121996 0.103789 0.661327
-0.035563 0.062673 0.383194
0.003096 0.045671 0.160629
-0.041450 -0.105474 0.241403
-0.044472 -0.219594 0.329365
-0.074659 -0.210953 0.284030
-0.003381 -0.117527 0.219989
-0.035500 0.000245 0.347434
-0.008315 -0.226304 0.274607
-0.096810 0.075030 0.323410
-0.055242 0.047866 0.106714
-0.068587 0.009652 0.445175
-0.007076 0.068436 0.287452
-0.104844 0.050554 0.490787
-0.008656 -0.217636 0.219449
-0.165478 0.128265 0.988806
-0.095180 0.060692 0.302725
-0.123038 0.135176 0.928613
-0.071635 -0.239672 0.328709
0.006839 -0.060571 0.176444
-0.087730 0.014803 0.176082
-0.060355 -0.399573 0.426345
-0.102819 0.088891 0.502712
-0.176653 0.124447 0.996385
-0.047109 -0.083296 0.230717
-0.092539 0.012627 0.378424
-0.098190 0.089162 0.312296
0.025533 -0.020314 0.125062
-0.085224 -0.002714 0.213187
-0.013441 -0.186406 0.274665
-0.088286 0.017389 0.237877
-0.047510 -0.633523 0.685773
-0.029735 0.051649 0.080464
-0.054787 -0.096185 0.233944
-0.093300 0.112855 0.359494
-0.068323 -0.357874 0.359135
-0.046423 -0.543581 0.548367
-0.000220 -0.010609 0.246681
-0.003279 -0.204691 0.222460
-0.043335 -0.026025 0.293184
-0.003349 -0.029823 0.220301
-0.059675 0.000186 0.399173
-0.047183 0.096674 0.381076
0.008887 0.038279 0.095107
0.005186 0.029512 0.266625
-0.054652 -0.379029 0.423940
-0.161483 0.101290 0.973432
-0.070691 -0.345251 0.361588
-0.110564 0.069457 0.543282
-0.004902 0.063170 0.286660
-0.082949 0.106941 0.395967
-0.087587 0.013711 0.219582
0.034912 -0.027071 0.090019
-0.080682 0.051949 0.616381
-0.123080 0.105407 0.901259
-0.065961 0.043623 0.108822
-0.071208 0.055923 0.619611
-0.091619 0.048071 0.242991
-0.081781 -0.009250 0.244394
-0.073486 -0.299216 0.327687
-0.003400 -0.103729 0.211978
-0.003491 -0.135134 0.228875
-0.075324 -0.272033 0.315240
-0.040768 0.035718 0.417081
-0.008868 -0.236472 0.276148
-0.012152 -0.186014 0.272106
-0.044509 -0.616740 0.651661
-0.005634 -0.025847 0.235088
0.001964 -0.019265 0.222526
0.030502 -0.030839 0.107135
-0.076567 -0.028510 0.229998
-0.083611 0.010415 0.098478
-0.040589 0.078322 0.386865
-0.096564 0.091695 0.400172
-0.009179 0.030433 0.314025
-0.008661 -0.240676 0.265139
-0.071631 0.066424 0.202010
-0.048994 -0.126231 0.254895
-0.117651 0.089752 0.867644
-0.095780 0.052090 0.326060
-0.044945 -0.055444 0.231239
-0.043620 -0.407567 0.453499
-0.043275 -0.579166 0.598622
-0.037463 -0.015274 0.317079
-0.019115 0.019085 0.333705
-0.053087 -0.409816 0.448209
-0.006886 -0.206327 0.265056
0.010529 0.016280 0.229491
-0.085211 -0.015189 0.102970
-0.088583 0.069842 0.243364
-0.013761 0.082569 0.260731
-0.066135 -0.350272 0.392150
-0.089034 0.004841 0.365866
-0.098255 0.046529 0.389295
-0.034567 -0.018189 0.306366
-0.001973 -0.194668 0.240922
-0.043070 -0.018384 0.315308
-0.119312 0.083738 0.843849
0.014668 -0.105159 0.164396
-0.104045 0.074059 0.480069
-0.018015 -0.131719 0.249579
0.000378 -0.006105 0.251544
-0.001728 0.026552 0.290738
-0.048771 -0.339661 0.404912
0.022528 -0.058573 0.137719
0.014529 -0.015880 0.168223
-0.012248 -0.242130 0.294169
-0.042550 -0.622326 0.660699
0.011256 -0.050404 0.166093
-0.096367 0.028749 0.371984
-0.091343 0.042325 0.241046
-0.068480 -0.354828 0.384150
-0.022206 -0.260048 0.334902
-0.063069 -0.267383 0.360994
0.007175 -0.146764 0.174968
-0.067879 -0.059201 0.216178
-0.129075 0.086786 0.871444
-0.096512 0.119284 0.613199
-0.006614 0.054833 0.300180
-0.071637 0.019608 0.488812
0.011858 0.031354 0.143406
-0.028741 0.051320 0.092972
0.007664 -0.139995 0.160947
-0.044296 -0.551703 0.559893
-0.062529 -0.122735 0.123968
-0.075292 -0.263047 0.318147
0.021126 -0.092139 0.119150
-0.040841 -0.391561 0.438922
-0.034865 -0.632475 0.677173
-0.056265 -0.469042 0.503373
-0.032830 -0.373850 0.420672
-0.111742 0.106315 0.891200
-0.072821 -0.230317 0.313970
-0.047234 0.057196 0.438920
-0.115581 0.120009 0.910006
-0.016425 -0.014514 0.284002
0.028391 -0.036240 0.115374
-0.082908 0.000565 0.084447
-0.014869 -0.166846 0.266909
0.015639 0.029067 0.108139
-0.082351 -0.010175 0.233145
-0.106018 0.057881 0.500355
0.011422 0.035902 0.218489
-0.131057 0.080130 0.742121
-0.083359 -0.006469 0.084739
-0.039578 0.034619 0.411580
-0.084359 0.099683 0.461364
-0.005765 0.049098 0.140698
-0.072938 -0.188429 0.230134
-0.068022 0.055065 0.167926
-0.119736 0.113593 0.676965
-0.088175 0.020034 0.185820
-0.050323 -0.322812 0.396803
-0.081310 -0.047031 0.081639
-0.071985 -0.275638 0.292758
-0.073563 0.020096 0.493906
-0.106460 0.062823 0.508773
-0.124556 0.096147 0.659788
-0.091897 0.050718 0.605986
-0.018710 0.053412 0.135304
-0.043776 -0.090507 0.233636
-0.112296 0.096870 0.873281
-0.045137 0.056635 0.429097
-0.115513 0.069921 0.794724
-0.063613 0.024594 0.495346
-0.104613 0.056012 0.558447
0.021017 -0.084098 0.089245
0.002928 -0.043512 0.188239
-0.006160 -0.218712 0.262283
-0.058347 -0.166006 0.283101
-0.082528 0.106566 0.718933
-0.031358 -0.247767 0.337019
-0.082946 -0.064742 0.144819
-0.005867 -0.187196 0.257217
-0.086451 0.005941 0.225734
-0.083916 0.046070 0.181218
-0.101315 0.038847 0.464652
-0.076118 -0.103159 0.204505
-0.064209 -0.204128 0.312119
-0.088759 0.039854 0.201684
-0.023247 -0.101540 0.233308
-0.061207 -0.166066 0.177642
-0.073985 -0.025379 0.249810
-0.070025 0.036949 0.073330
-0.069408 0.060538 0.184717
-0.060760 0.048992 0.132307
-0.086238 0.020462 0.492106
-0.052549 0.008653 0.410924
-0.073722 -0.036813 0.225325
0.001222 -0.050361 0.188564
0.001049 0.031850 0.283320
-0.060955 0.090742 0.448058
-0.024788 -0.278457 0.352651
-0.028759 -0.190005 0.297125
-0.027764 0.001446 0.333686
